ply
format ascii 1.0
element vertex 1430
property float x
property float y
property float z
property uchar red
property uchar green
property uchar blue
end_header
180.0000 6.0000 22.3622 71 71 71
183.0000 6.0000 22.6772 72 72 72
186.0000 6.0000 22.9921 73 73 73
189.0000 6.0000 23.3071 74 74 74
192.0000 6.0000 23.9370 76 76 76
195.0000 6.0000 24.2520 77 77 77
198.0000 6.0000 24.5669 78 78 78
0.0000 9.0000 0.9449 3 3 3
3.0000 9.0000 1.2598 4 4 4
6.0000 9.0000 1.5748 5 5 5
9.0000 9.0000 1.8898 6 6 6
12.0000 9.0000 2.5197 8 8 8
15.0000 9.0000 2.8346 9 9 9
18.0000 9.0000 3.1496 10 10 10
21.0000 9.0000 3.4646 11 11 11
24.0000 9.0000 3.7795 12 12 12
27.0000 9.0000 4.0945 13 13 13
30.0000 9.0000 4.4094 14 14 14
33.0000 9.0000 5.0394 16 16 16
36.0000 9.0000 5.3543 17 17 17
39.0000 9.0000 5.6693 18 18 18
42.0000 9.0000 5.9843 19 19 19
45.0000 9.0000 6.2992 20 20 20
48.0000 9.0000 6.6142 21 21 21
51.0000 9.0000 7.2441 23 23 23
54.0000 9.0000 7.5591 24 24 24
57.0000 9.0000 7.8740 25 25 25
60.0000 9.0000 8.1890 26 26 26
63.0000 9.0000 8.5039 27 27 27
66.0000 9.0000 8.8189 28 28 28
69.0000 9.0000 9.1339 29 29 29
72.0000 9.0000 9.7638 31 31 31
75.0000 9.0000 10.0787 32 32 32
78.0000 9.0000 10.3937 33 33 33
81.0000 9.0000 10.7087 34 34 34
84.0000 9.0000 11.0236 35 35 35
87.0000 9.0000 11.3386 36 36 36
90.0000 9.0000 11.9685 38 38 38
93.0000 9.0000 12.2835 39 39 39
96.0000 9.0000 12.5984 40 40 40
99.0000 9.0000 12.9134 41 41 41
102.0000 9.0000 13.2283 42 42 42
105.0000 9.0000 13.5433 43 43 43
108.0000 9.0000 13.8583 44 44 44
111.0000 9.0000 14.4882 46 46 46
114.0000 9.0000 14.8032 47 47 47
117.0000 9.0000 15.1181 48 48 48
120.0000 9.0000 15.4331 49 49 49
123.0000 9.0000 15.7480 50 50 50
126.0000 9.0000 16.0630 51 51 51
129.0000 9.0000 16.6929 53 53 53
132.0000 9.0000 17.0079 54 54 54
135.0000 9.0000 17.3228 55 55 55
138.0000 9.0000 17.6378 56 56 56
141.0000 9.0000 17.9528 57 57 57
144.0000 9.0000 18.2677 58 58 58
147.0000 9.0000 18.5827 59 59 59
150.0000 9.0000 19.2126 61 61 61
153.0000 9.0000 19.5276 62 62 62
156.0000 9.0000 19.8425 63 63 63
159.0000 9.0000 20.1575 64 64 64
162.0000 9.0000 20.4724 65 65 65
165.0000 9.0000 20.7874 66 66 66
168.0000 9.0000 21.4173 68 68 68
171.0000 9.0000 21.7323 69 69 69
174.0000 9.0000 22.0472 70 70 70
177.0000 9.0000 22.3622 71 71 71
180.0000 9.0000 22.6772 72 72 72
183.0000 9.0000 22.9921 73 73 73
186.0000 9.0000 23.3071 74 74 74
189.0000 9.0000 23.9370 76 76 76
192.0000 9.0000 24.2520 77 77 77
195.0000 9.0000 24.5669 78 78 78
198.0000 9.0000 24.8819 79 79 79
0.0000 12.0000 1.2598 4 4 4
3.0000 12.0000 1.5748 5 5 5
6.0000 12.0000 1.8898 6 6 6
9.0000 12.0000 2.5197 8 8 8
12.0000 12.0000 2.8346 9 9 9
15.0000 12.0000 3.1496 10 10 10
18.0000 12.0000 3.4646 11 11 11
21.0000 12.0000 3.7795 12 12 12
24.0000 12.0000 4.0945 13 13 13
27.0000 12.0000 4.4094 14 14 14
30.0000 12.0000 5.0394 16 16 16
33.0000 12.0000 5.3543 17 17 17
36.0000 12.0000 5.6693 18 18 18
39.0000 12.0000 5.9843 19 19 19
42.0000 12.0000 6.2992 20 20 20
45.0000 12.0000 6.6142 21 21 21
48.0000 12.0000 7.2441 23 23 23
51.0000 12.0000 7.5591 24 24 24
54.0000 12.0000 7.8740 25 25 25
57.0000 12.0000 8.1890 26 26 26
60.0000 12.0000 8.5039 27 27 27
63.0000 12.0000 8.8189 28 28 28
66.0000 12.0000 9.1339 29 29 29
69.0000 12.0000 9.7638 31 31 31
72.0000 12.0000 10.0787 32 32 32
75.0000 12.0000 10.3937 33 33 33
78.0000 12.0000 10.7087 34 34 34
81.0000 12.0000 11.0236 35 35 35
84.0000 12.0000 11.3386 36 36 36
87.0000 12.0000 11.9685 38 38 38
90.0000 12.0000 12.2835 39 39 39
93.0000 12.0000 12.5984 40 40 40
96.0000 12.0000 12.9134 41 41 41
99.0000 12.0000 13.2283 42 42 42
102.0000 12.0000 13.5433 43 43 43
105.0000 12.0000 13.8583 44 44 44
108.0000 12.0000 14.4882 46 46 46
111.0000 12.0000 14.8032 47 47 47
114.0000 12.0000 15.1181 48 48 48
117.0000 12.0000 15.4331 49 49 49
120.0000 12.0000 15.7480 50 50 50
123.0000 12.0000 16.0630 51 51 51
126.0000 12.0000 16.6929 53 53 53
129.0000 12.0000 17.0079 54 54 54
132.0000 12.0000 17.3228 55 55 55
135.0000 12.0000 17.6378 56 56 56
138.0000 12.0000 17.9528 57 57 57
141.0000 12.0000 18.2677 58 58 58
144.0000 12.0000 18.5827 59 59 59
147.0000 12.0000 19.2126 61 61 61
150.0000 12.0000 19.5276 62 62 62
153.0000 12.0000 19.8425 63 63 63
156.0000 12.0000 20.1575 64 64 64
159.0000 12.0000 20.4724 65 65 65
162.0000 12.0000 20.7874 66 66 66
165.0000 12.0000 21.4173 68 68 68
168.0000 12.0000 21.7323 69 69 69
171.0000 12.0000 22.0472 70 70 70
174.0000 12.0000 22.3622 71 71 71
177.0000 12.0000 22.6772 72 72 72
180.0000 12.0000 22.9921 73 73 73
183.0000 12.0000 23.3071 74 74 74
186.0000 12.0000 23.9370 76 76 76
189.0000 12.0000 24.2520 77 77 77
192.0000 12.0000 24.5669 78 78 78
195.0000 12.0000 24.8819 79 79 79
198.0000 12.0000 25.1968 80 80 80
0.0000 15.0000 1.8898 5 5 5
3.0000 15.0000 1.8898 6 6 6
6.0000 15.0000 2.5197 8 8 8
9.0000 15.0000 2.8346 9 9 9
12.0000 15.0000 3.1496 10 10 10
15.0000 15.0000 3.4646 11 11 11
18.0000 15.0000 3.7795 12 12 12
21.0000 15.0000 4.0945 13 13 13
24.0000 15.0000 4.4094 14 14 14
27.0000 15.0000 5.0394 16 16 16
30.0000 15.0000 5.3543 17 17 17
33.0000 15.0000 5.6693 18 18 18
36.0000 15.0000 5.9843 19 19 19
39.0000 15.0000 6.2992 20 20 20
42.0000 15.0000 6.6142 21 21 21
45.0000 15.0000 7.2441 23 23 23
48.0000 15.0000 7.5591 24 24 24
51.0000 15.0000 7.8740 25 25 25
54.0000 15.0000 8.1890 26 26 26
57.0000 15.0000 8.5039 27 27 27
60.0000 15.0000 8.8189 28 28 28
63.0000 15.0000 9.1339 29 29 29
66.0000 15.0000 9.7638 31 31 31
69.0000 15.0000 10.0787 32 32 32
72.0000 15.0000 10.3937 33 33 33
75.0000 15.0000 10.7087 34 34 34
78.0000 15.0000 11.0236 35 35 35
81.0000 15.0000 11.3386 36 36 36
84.0000 15.0000 11.9685 38 38 38
87.0000 15.0000 12.2835 39 39 39
90.0000 15.0000 12.5984 40 40 40
93.0000 15.0000 12.9134 41 41 41
96.0000 15.0000 13.2283 42 42 42
99.0000 15.0000 13.5433 43 43 43
102.0000 15.0000 13.8583 44 44 44
105.0000 15.0000 14.4882 46 46 46
108.0000 15.0000 14.8032 47 47 47
111.0000 15.0000 15.1181 48 48 48
114.0000 15.0000 15.4331 49 49 49
117.0000 15.0000 15.7480 50 50 50
120.0000 15.0000 16.0630 51 51 51
123.0000 15.0000 16.6929 53 53 53
126.0000 15.0000 17.0079 54 54 54
129.0000 15.0000 17.3228 55 55 55
132.0000 15.0000 17.6378 56 56 56
135.0000 15.0000 17.9528 57 57 57
138.0000 15.0000 18.2677 58 58 58
141.0000 15.0000 18.5827 59 59 59
144.0000 15.0000 19.2126 61 61 61
147.0000 15.0000 19.5276 62 62 62
150.0000 15.0000 19.8425 63 63 63
153.0000 15.0000 20.1575 64 64 64
156.0000 15.0000 20.4724 65 65 65
159.0000 15.0000 20.7874 66 66 66
162.0000 15.0000 21.4173 68 68 68
165.0000 15.0000 21.7323 69 69 69
168.0000 15.0000 22.0472 70 70 70
171.0000 15.0000 22.3622 71 71 71
174.0000 15.0000 22.6772 72 72 72
177.0000 15.0000 22.9921 73 73 73
180.0000 15.0000 23.3071 74 74 74
183.0000 15.0000 23.9370 76 76 76
186.0000 15.0000 24.2520 77 77 77
189.0000 15.0000 24.5669 78 78 78
192.0000 15.0000 24.8819 79 79 79
195.0000 15.0000 25.1968 80 80 80
198.0000 15.0000 25.5118 81 81 81
0.0000 18.0000 2.2047 6 6 6
3.0000 18.0000 2.5197 8 8 8
6.0000 18.0000 2.8346 9 9 9
9.0000 18.0000 3.1496 10 10 10
12.0000 18.0000 3.4646 11 11 11
15.0000 18.0000 3.7795 12 12 12
18.0000 18.0000 4.0945 13 13 13
21.0000 18.0000 4.4094 14 14 14
24.0000 18.0000 5.0394 16 16 16
27.0000 18.0000 5.3543 17 17 17
30.0000 18.0000 5.6693 18 18 18
33.0000 18.0000 5.9843 19 19 19
36.0000 18.0000 6.2992 20 20 20
39.0000 18.0000 6.6142 21 21 21
42.0000 18.0000 7.2441 23 23 23
45.0000 18.0000 7.5591 24 24 24
48.0000 18.0000 7.8740 25 25 25
51.0000 18.0000 8.1890 26 26 26
54.0000 18.0000 8.5039 27 27 27
57.0000 18.0000 8.8189 28 28 28
60.0000 18.0000 9.1339 29 29 29
63.0000 18.0000 9.7638 31 31 31
66.0000 18.0000 10.0787 32 32 32
69.0000 18.0000 10.3937 33 33 33
72.0000 18.0000 10.7087 34 34 34
75.0000 18.0000 11.0236 35 35 35
78.0000 18.0000 11.3386 36 36 36
81.0000 18.0000 11.9685 38 38 38
84.0000 18.0000 12.2835 39 39 39
87.0000 18.0000 12.5984 40 40 40
90.0000 18.0000 12.9134 41 41 41
93.0000 18.0000 13.2283 42 42 42
96.0000 18.0000 13.5433 43 43 43
99.0000 18.0000 13.8583 44 44 44
102.0000 18.0000 14.4882 46 46 46
105.0000 18.0000 14.8032 47 47 47
108.0000 18.0000 15.1181 48 48 48
111.0000 18.0000 15.4331 49 49 49
114.0000 18.0000 15.7480 50 50 50
117.0000 18.0000 16.0630 51 51 51
120.0000 18.0000 16.6929 53 53 53
123.0000 18.0000 17.0079 54 54 54
126.0000 18.0000 17.3228 55 55 55
129.0000 18.0000 17.6378 56 56 56
132.0000 18.0000 17.9528 57 57 57
135.0000 18.0000 18.2677 58 58 58
138.0000 18.0000 18.5827 59 59 59
141.0000 18.0000 19.2126 61 61 61
144.0000 18.0000 19.5276 62 62 62
147.0000 18.0000 19.8425 63 63 63
150.0000 18.0000 20.1575 64 64 64
153.0000 18.0000 20.4724 65 65 65
156.0000 18.0000 20.7874 66 66 66
159.0000 18.0000 21.4173 68 68 68
162.0000 18.0000 21.7323 69 69 69
165.0000 18.0000 22.0472 70 70 70
168.0000 18.0000 22.3622 71 71 71
171.0000 18.0000 22.6772 72 72 72
174.0000 18.0000 22.9921 73 73 73
177.0000 18.0000 23.3071 74 74 74
180.0000 18.0000 23.9370 76 76 76
183.0000 18.0000 24.2520 77 77 77
186.0000 18.0000 24.5669 78 78 78
189.0000 18.0000 24.8819 79 79 79
192.0000 18.0000 25.1968 80 80 80
195.0000 18.0000 25.5118 81 81 81
198.0000 18.0000 26.1417 83 83 83
0.0000 21.0000 2.5197 8 8 8
3.0000 21.0000 2.8346 9 9 9
6.0000 21.0000 3.1496 10 10 10
9.0000 21.0000 3.4646 11 11 11
12.0000 21.0000 3.7795 12 12 12
15.0000 21.0000 4.0945 13 13 13
18.0000 21.0000 4.4094 14 14 14
21.0000 21.0000 5.0394 16 16 16
24.0000 21.0000 5.3543 17 17 17
27.0000 21.0000 5.6693 18 18 18
30.0000 21.0000 5.9843 19 19 19
33.0000 21.0000 6.2992 20 20 20
36.0000 21.0000 6.6142 21 21 21
39.0000 21.0000 7.2441 23 23 23
42.0000 21.0000 7.5591 24 24 24
45.0000 21.0000 7.8740 25 25 25
48.0000 21.0000 8.1890 26 26 26
51.0000 21.0000 8.5039 27 27 27
54.0000 21.0000 8.8189 28 28 28
57.0000 21.0000 9.1339 29 29 29
60.0000 21.0000 9.7638 31 31 31
63.0000 21.0000 10.0787 32 32 32
66.0000 21.0000 10.3937 33 33 33
69.0000 21.0000 10.7087 34 34 34
72.0000 21.0000 11.0236 35 35 35
75.0000 21.0000 11.3386 36 36 36
78.0000 21.0000 11.9685 38 38 38
81.0000 21.0000 12.2835 39 39 39
84.0000 21.0000 12.5984 40 40 40
87.0000 21.0000 12.9134 41 41 41
90.0000 21.0000 13.2283 42 42 42
93.0000 21.0000 13.5433 43 43 43
96.0000 21.0000 13.8583 44 44 44
99.0000 21.0000 14.4882 46 46 46
102.0000 21.0000 14.8032 47 47 47
105.0000 21.0000 15.1181 48 48 48
108.0000 21.0000 15.4331 49 49 49
111.0000 21.0000 15.7480 50 50 50
114.0000 21.0000 16.0630 51 51 51
117.0000 21.0000 16.6929 53 53 53
120.0000 21.0000 17.0079 54 54 54
123.0000 21.0000 17.3228 55 55 55
126.0000 21.0000 17.6378 56 56 56
129.0000 21.0000 17.9528 57 57 57
132.0000 21.0000 18.2677 58 58 58
135.0000 21.0000 18.5827 59 59 59
138.0000 21.0000 19.2126 61 61 61
141.0000 21.0000 19.5276 62 62 62
144.0000 21.0000 19.8425 63 63 63
147.0000 21.0000 20.1575 64 64 64
150.0000 21.0000 20.4724 65 65 65
153.0000 21.0000 20.7874 66 66 66
156.0000 21.0000 21.4173 68 68 68
159.0000 21.0000 21.7323 69 69 69
162.0000 21.0000 22.0472 70 70 70
165.0000 21.0000 22.3622 71 71 71
168.0000 21.0000 22.6772 72 72 72
171.0000 21.0000 22.9921 73 73 73
174.0000 21.0000 23.3071 74 74 74
177.0000 21.0000 23.9370 76 76 76
180.0000 21.0000 24.2520 77 77 77
183.0000 21.0000 24.5669 78 78 78
186.0000 21.0000 24.8819 79 79 79
189.0000 21.0000 25.1968 80 80 80
192.0000 21.0000 25.5118 81 81 81
195.0000 21.0000 26.1417 83 83 83
198.0000 21.0000 26.4567 84 84 84
0.0000 24.0000 2.8346 9 9 9
3.0000 24.0000 3.1496 10 10 10
6.0000 24.0000 3.4646 11 11 11
9.0000 24.0000 3.7795 12 12 12
12.0000 24.0000 4.0945 13 13 13
15.0000 24.0000 4.4094 14 14 14
18.0000 24.0000 5.0394 16 16 16
21.0000 24.0000 5.3543 17 17 17
24.0000 24.0000 5.6693 18 18 18
27.0000 24.0000 5.9843 19 19 19
30.0000 24.0000 6.2992 20 20 20
33.0000 24.0000 6.6142 21 21 21
36.0000 24.0000 7.2441 23 23 23
39.0000 24.0000 7.5591 24 24 24
42.0000 24.0000 7.8740 25 25 25
45.0000 24.0000 8.1890 26 26 26
48.0000 24.0000 8.5039 27 27 27
51.0000 24.0000 8.8189 28 28 28
54.0000 24.0000 9.1339 29 29 29
57.0000 24.0000 9.7638 31 31 31
60.0000 24.0000 10.0787 32 32 32
63.0000 24.0000 10.3937 33 33 33
66.0000 24.0000 10.7087 34 34 34
69.0000 24.0000 11.0236 35 35 35
72.0000 24.0000 11.3386 36 36 36
75.0000 24.0000 11.9685 38 38 38
78.0000 24.0000 12.2835 39 39 39
81.0000 24.0000 12.5984 40 40 40
84.0000 24.0000 12.9134 41 41 41
87.0000 24.0000 13.2283 42 42 42
90.0000 24.0000 13.5433 43 43 43
93.0000 24.0000 13.8583 44 44 44
96.0000 24.0000 14.4882 46 46 46
99.0000 24.0000 14.8032 47 47 47
102.0000 24.0000 15.1181 48 48 48
105.0000 24.0000 15.4331 49 49 49
108.0000 24.0000 15.7480 50 50 50
111.0000 24.0000 16.0630 51 51 51
114.0000 24.0000 16.6929 53 53 53
117.0000 24.0000 17.0079 54 54 54
120.0000 24.0000 17.3228 55 55 55
123.0000 24.0000 17.6378 56 56 56
126.0000 24.0000 17.9528 57 57 57
129.0000 24.0000 18.2677 58 58 58
132.0000 24.0000 18.5827 59 59 59
135.0000 24.0000 19.2126 61 61 61
138.0000 24.0000 19.5276 62 62 62
141.0000 24.0000 19.8425 63 63 63
144.0000 24.0000 20.1575 64 64 64
147.0000 24.0000 20.4724 65 65 65
150.0000 24.0000 20.7874 66 66 66
153.0000 24.0000 21.4173 68 68 68
156.0000 24.0000 21.7323 69 69 69
159.0000 24.0000 22.0472 70 70 70
162.0000 24.0000 22.3622 71 71 71
165.0000 24.0000 22.6772 72 72 72
168.0000 24.0000 22.9921 73 73 73
171.0000 24.0000 23.3071 74 74 74
174.0000 24.0000 23.9370 76 76 76
177.0000 24.0000 24.2520 77 77 77
180.0000 24.0000 24.5669 78 78 78
183.0000 24.0000 24.8819 79 79 79
186.0000 24.0000 25.1968 80 80 80
189.0000 24.0000 25.5118 81 81 81
192.0000 24.0000 26.1417 83 83 83
195.0000 24.0000 26.4567 84 84 84
198.0000 24.0000 26.7717 85 85 85
0.0000 27.0000 3.1496 10 10 10
3.0000 27.0000 3.4646 11 11 11
6.0000 27.0000 3.7795 12 12 12
9.0000 27.0000 4.0945 13 13 13
12.0000 27.0000 4.4094 14 14 14
15.0000 27.0000 5.0394 16 16 16
18.0000 27.0000 5.3543 17 17 17
21.0000 27.0000 5.6693 18 18 18
24.0000 27.0000 5.9843 19 19 19
27.0000 27.0000 6.2992 20 20 20
30.0000 27.0000 6.6142 21 21 21
33.0000 27.0000 7.2441 23 23 23
36.0000 27.0000 7.5591 24 24 24
39.0000 27.0000 7.8740 25 25 25
42.0000 27.0000 8.1890 26 26 26
45.0000 27.0000 8.5039 27 27 27
48.0000 27.0000 8.8189 28 28 28
51.0000 27.0000 9.1339 29 29 29
54.0000 27.0000 9.7638 31 31 31
57.0000 27.0000 10.0787 32 32 32
60.0000 27.0000 10.3937 33 33 33
63.0000 27.0000 10.7087 34 34 34
66.0000 27.0000 11.0236 35 35 35
69.0000 27.0000 11.3386 36 36 36
72.0000 27.0000 11.9685 38 38 38
75.0000 27.0000 12.2835 39 39 39
78.0000 27.0000 12.5984 40 40 40
81.0000 27.0000 12.9134 41 41 41
84.0000 27.0000 13.2283 42 42 42
87.0000 27.0000 13.5433 43 43 43
90.0000 27.0000 13.8583 44 44 44
93.0000 27.0000 14.4882 46 46 46
96.0000 27.0000 14.8032 47 47 47
99.0000 27.0000 15.1181 48 48 48
102.0000 27.0000 15.4331 49 49 49
105.0000 27.0000 15.7480 50 50 50
108.0000 27.0000 16.0630 51 51 51
111.0000 27.0000 16.6929 53 53 53
114.0000 27.0000 17.0079 54 54 54
117.0000 27.0000 17.3228 55 55 55
120.0000 27.0000 17.6378 56 56 56
123.0000 27.0000 17.9528 57 57 57
126.0000 27.0000 18.2677 58 58 58
129.0000 27.0000 18.5827 59 59 59
132.0000 27.0000 19.2126 61 61 61
135.0000 27.0000 19.5276 62 62 62
138.0000 27.0000 19.8425 63 63 63
141.0000 27.0000 20.1575 64 64 64
144.0000 27.0000 20.4724 65 65 65
147.0000 27.0000 20.7874 66 66 66
150.0000 27.0000 21.4173 68 68 68
153.0000 27.0000 21.7323 69 69 69
156.0000 27.0000 22.0472 70 70 70
159.0000 27.0000 22.3622 71 71 71
162.0000 27.0000 22.6772 72 72 72
165.0000 27.0000 22.9921 73 73 73
168.0000 27.0000 23.3071 74 74 74
171.0000 27.0000 23.9370 76 76 76
174.0000 27.0000 24.2520 77 77 77
177.0000 27.0000 24.5669 78 78 78
180.0000 27.0000 24.8819 79 79 79
183.0000 27.0000 25.1968 80 80 80
186.0000 27.0000 25.5118 81 81 81
189.0000 27.0000 26.1417 83 83 83
192.0000 27.0000 26.4567 84 84 84
195.0000 27.0000 26.7717 85 85 85
198.0000 27.0000 27.0866 86 86 86
0.0000 30.0000 3.4646 11 11 11
3.0000 30.0000 3.7795 12 12 12
6.0000 30.0000 4.0945 13 13 13
9.0000 30.0000 4.4094 14 14 14
12.0000 30.0000 5.0394 16 16 16
15.0000 30.0000 5.3543 17 17 17
18.0000 30.0000 5.6693 18 18 18
21.0000 30.0000 5.9843 19 19 19
24.0000 30.0000 6.2992 20 20 20
27.0000 30.0000 6.6142 21 21 21
30.0000 30.0000 7.2441 23 23 23
33.0000 30.0000 7.5591 24 24 24
36.0000 30.0000 7.8740 25 25 25
39.0000 30.0000 8.1890 26 26 26
42.0000 30.0000 8.5039 27 27 27
45.0000 30.0000 8.8189 28 28 28
48.0000 30.0000 9.1339 29 29 29
51.0000 30.0000 9.7638 31 31 31
54.0000 30.0000 10.0787 32 32 32
57.0000 30.0000 10.3937 33 33 33
60.0000 30.0000 10.7087 34 34 34
63.0000 30.0000 11.0236 35 35 35
66.0000 30.0000 11.3386 36 36 36
69.0000 30.0000 11.9685 38 38 38
72.0000 30.0000 12.2835 39 39 39
75.0000 30.0000 12.5984 40 40 40
78.0000 30.0000 12.9134 41 41 41
81.0000 30.0000 13.2283 42 42 42
84.0000 30.0000 13.5433 43 43 43
87.0000 30.0000 13.8583 44 44 44
90.0000 30.0000 14.4882 46 46 46
93.0000 30.0000 14.8032 47 47 47
96.0000 30.0000 15.1181 48 48 48
99.0000 30.0000 15.4331 49 49 49
102.0000 30.0000 15.7480 50 50 50
105.0000 30.0000 16.0630 51 51 51
108.0000 30.0000 16.6929 53 53 53
111.0000 30.0000 17.0079 54 54 54
114.0000 30.0000 17.3228 55 55 55
117.0000 30.0000 17.6378 56 56 56
120.0000 30.0000 17.9528 57 57 57
123.0000 30.0000 18.2677 58 58 58
126.0000 30.0000 18.5827 59 59 59
129.0000 30.0000 19.2126 61 61 61
132.0000 30.0000 19.5276 62 62 62
135.0000 30.0000 19.8425 63 63 63
138.0000 30.0000 20.1575 64 64 64
141.0000 30.0000 20.4724 65 65 65
144.0000 30.0000 20.7874 66 66 66
147.0000 30.0000 21.4173 68 68 68
150.0000 30.0000 21.7323 69 69 69
153.0000 30.0000 22.0472 70 70 70
156.0000 30.0000 22.3622 71 71 71
159.0000 30.0000 22.6772 72 72 72
162.0000 30.0000 22.9921 73 73 73
165.0000 30.0000 23.3071 74 74 74
168.0000 30.0000 23.9370 76 76 76
171.0000 30.0000 24.2520 77 77 77
174.0000 30.0000 24.5669 78 78 78
177.0000 30.0000 24.8819 79 79 79
180.0000 30.0000 25.1968 80 80 80
183.0000 30.0000 25.5118 81 81 81
186.0000 30.0000 26.1417 83 83 83
189.0000 30.0000 26.4567 84 84 84
192.0000 30.0000 26.7717 85 85 85
195.0000 30.0000 27.0866 86 86 86
198.0000 30.0000 27.4016 87 87 87
0.0000 33.0000 4.0945 12 12 12
3.0000 33.0000 4.0945 13 13 13
6.0000 33.0000 4.4094 14 14 14
9.0000 33.0000 5.0394 16 16 16
12.0000 33.0000 5.3543 17 17 17
15.0000 33.0000 5.6693 18 18 18
18.0000 33.0000 5.9843 19 19 19
21.0000 33.0000 6.2992 20 20 20
24.0000 33.0000 6.6142 21 21 21
27.0000 33.0000 7.2441 23 23 23
30.0000 33.0000 7.5591 24 24 24
33.0000 33.0000 7.8740 25 25 25
36.0000 33.0000 8.1890 26 26 26
39.0000 33.0000 8.5039 27 27 27
42.0000 33.0000 8.8189 28 28 28
45.0000 33.0000 9.1339 29 29 29
48.0000 33.0000 9.7638 31 31 31
51.0000 33.0000 10.0787 32 32 32
54.0000 33.0000 10.3937 33 33 33
57.0000 33.0000 10.7087 34 34 34
60.0000 33.0000 11.0236 35 35 35
63.0000 33.0000 11.3386 36 36 36
66.0000 33.0000 11.9685 38 38 38
69.0000 33.0000 12.2835 39 39 39
72.0000 33.0000 12.5984 40 40 40
75.0000 33.0000 12.9134 41 41 41
78.0000 33.0000 13.2283 42 42 42
81.0000 33.0000 13.5433 43 43 43
84.0000 33.0000 13.8583 44 44 44
87.0000 33.0000 14.4882 46 46 46
90.0000 33.0000 14.8032 47 47 47
93.0000 33.0000 15.1181 48 48 48
96.0000 33.0000 15.4331 49 49 49
99.0000 33.0000 15.7480 50 50 50
102.0000 33.0000 16.0630 51 51 51
105.0000 33.0000 16.6929 53 53 53
108.0000 33.0000 17.0079 54 54 54
111.0000 33.0000 17.3228 55 55 55
114.0000 33.0000 17.6378 56 56 56
117.0000 33.0000 17.9528 57 57 57
120.0000 33.0000 18.2677 58 58 58
123.0000 33.0000 18.5827 59 59 59
126.0000 33.0000 19.2126 61 61 61
129.0000 33.0000 19.5276 62 62 62
132.0000 33.0000 19.8425 63 63 63
135.0000 33.0000 20.1575 64 64 64
138.0000 33.0000 20.4724 65 65 65
141.0000 33.0000 20.7874 66 66 66
144.0000 33.0000 21.4173 68 68 68
147.0000 33.0000 21.7323 69 69 69
150.0000 33.0000 22.0472 70 70 70
153.0000 33.0000 22.3622 71 71 71
156.0000 33.0000 22.6772 72 72 72
159.0000 33.0000 22.9921 73 73 73
162.0000 33.0000 23.3071 74 74 74
165.0000 33.0000 23.9370 76 76 76
168.0000 33.0000 24.2520 77 77 77
171.0000 33.0000 24.5669 78 78 78
174.0000 33.0000 24.8819 79 79 79
177.0000 33.0000 25.1968 80 80 80
180.0000 33.0000 25.5118 81 81 81
183.0000 33.0000 26.1417 83 83 83
186.0000 33.0000 26.4567 84 84 84
189.0000 33.0000 26.7717 85 85 85
192.0000 33.0000 27.0866 86 86 86
195.0000 33.0000 27.4016 87 87 87
198.0000 33.0000 27.7165 88 88 88
0.0000 36.0000 4.4094 13 13 13
3.0000 36.0000 4.4094 14 14 14
6.0000 36.0000 5.0394 16 16 16
9.0000 36.0000 5.3543 17 17 17
12.0000 36.0000 5.6693 18 18 18
15.0000 36.0000 5.9843 19 19 19
18.0000 36.0000 6.2992 20 20 20
21.0000 36.0000 6.6142 21 21 21
24.0000 36.0000 7.2441 23 23 23
27.0000 36.0000 7.5591 24 24 24
30.0000 36.0000 7.8740 25 25 25
33.0000 36.0000 8.1890 26 26 26
36.0000 36.0000 8.5039 27 27 27
39.0000 36.0000 8.8189 28 28 28
42.0000 36.0000 9.1339 29 29 29
45.0000 36.0000 9.7638 31 31 31
48.0000 36.0000 10.0787 32 32 32
51.0000 36.0000 10.3937 33 33 33
54.0000 36.0000 10.7087 34 34 34
57.0000 36.0000 11.0236 35 35 35
60.0000 36.0000 11.3386 36 36 36
63.0000 36.0000 11.9685 38 38 38
66.0000 36.0000 12.2835 39 39 39
69.0000 36.0000 12.5984 40 40 40
72.0000 36.0000 12.9134 41 41 41
75.0000 36.0000 13.2283 42 42 42
78.0000 36.0000 13.5433 43 43 43
81.0000 36.0000 13.8583 44 44 44
84.0000 36.0000 14.4882 46 46 46
87.0000 36.0000 14.8032 47 47 47
90.0000 36.0000 15.1181 48 48 48
93.0000 36.0000 15.4331 49 49 49
96.0000 36.0000 15.7480 50 50 50
99.0000 36.0000 16.0630 51 51 51
102.0000 36.0000 16.6929 53 53 53
105.0000 36.0000 17.0079 54 54 54
108.0000 36.0000 17.3228 55 55 55
111.0000 36.0000 17.6378 56 56 56
114.0000 36.0000 17.9528 57 57 57
117.0000 36.0000 18.2677 58 58 58
120.0000 36.0000 18.5827 59 59 59
123.0000 36.0000 19.2126 61 61 61
126.0000 36.0000 19.5276 62 62 62
129.0000 36.0000 19.8425 63 63 63
132.0000 36.0000 20.1575 64 64 64
135.0000 36.0000 20.4724 65 65 65
138.0000 36.0000 20.7874 66 66 66
141.0000 36.0000 21.4173 68 68 68
144.0000 36.0000 21.7323 69 69 69
147.0000 36.0000 22.0472 70 70 70
150.0000 36.0000 22.3622 71 71 71
153.0000 36.0000 22.6772 72 72 72
156.0000 36.0000 22.9921 73 73 73
159.0000 36.0000 23.3071 74 74 74
162.0000 36.0000 23.9370 76 76 76
165.0000 36.0000 24.2520 77 77 77
168.0000 36.0000 24.5669 78 78 78
171.0000 36.0000 24.8819 79 79 79
174.0000 36.0000 25.1968 80 80 80
177.0000 36.0000 25.5118 81 81 81
180.0000 36.0000 26.1417 83 83 83
183.0000 36.0000 26.4567 84 84 84
186.0000 36.0000 26.7717 85 85 85
189.0000 36.0000 27.0866 86 86 86
192.0000 36.0000 27.4016 87 87 87
195.0000 36.0000 27.7165 88 88 88
198.0000 36.0000 28.0315 89 89 89
0.0000 39.0000 4.7244 14 14 14
3.0000 39.0000 5.0394 16 16 16
6.0000 39.0000 5.3543 17 17 17
9.0000 39.0000 5.6693 18 18 18
12.0000 39.0000 5.9843 19 19 19
15.0000 39.0000 6.2992 20 20 20
18.0000 39.0000 6.6142 21 21 21
21.0000 39.0000 7.2441 23 23 23
24.0000 39.0000 7.5591 24 24 24
27.0000 39.0000 7.8740 25 25 25
30.0000 39.0000 8.1890 26 26 26
33.0000 39.0000 8.5039 27 27 27
36.0000 39.0000 8.8189 28 28 28
39.0000 39.0000 9.1339 29 29 29
42.0000 39.0000 9.7638 31 31 31
45.0000 39.0000 10.0787 32 32 32
48.0000 39.0000 10.3937 33 33 33
51.0000 39.0000 10.7087 34 34 34
54.0000 39.0000 11.0236 35 35 35
57.0000 39.0000 11.3386 36 36 36
60.0000 39.0000 11.9685 38 38 38
63.0000 39.0000 12.2835 39 39 39
66.0000 39.0000 12.5984 40 40 40
69.0000 39.0000 12.9134 41 41 41
72.0000 39.0000 13.2283 42 42 42
75.0000 39.0000 13.5433 43 43 43
78.0000 39.0000 13.8583 44 44 44
81.0000 39.0000 14.4882 46 46 46
84.0000 39.0000 14.8032 47 47 47
87.0000 39.0000 15.1181 48 48 48
90.0000 39.0000 15.4331 49 49 49
93.0000 39.0000 15.7480 50 50 50
96.0000 39.0000 16.0630 51 51 51
99.0000 39.0000 16.6929 53 53 53
102.0000 39.0000 17.0079 54 54 54
105.0000 39.0000 17.3228 55 55 55
108.0000 39.0000 17.6378 56 56 56
111.0000 39.0000 17.9528 57 57 57
114.0000 39.0000 18.2677 58 58 58
117.0000 39.0000 18.5827 59 59 59
120.0000 39.0000 19.2126 61 61 61
123.0000 39.0000 19.5276 62 62 62
126.0000 39.0000 19.8425 63 63 63
129.0000 39.0000 20.1575 64 64 64
132.0000 39.0000 20.4724 65 65 65
135.0000 39.0000 20.7874 66 66 66
138.0000 39.0000 21.4173 68 68 68
141.0000 39.0000 21.7323 69 69 69
144.0000 39.0000 22.0472 70 70 70
147.0000 39.0000 22.3622 71 71 71
150.0000 39.0000 22.6772 72 72 72
153.0000 39.0000 22.9921 73 73 73
156.0000 39.0000 23.3071 74 74 74
159.0000 39.0000 23.9370 76 76 76
162.0000 39.0000 24.2520 77 77 77
165.0000 39.0000 24.5669 78 78 78
168.0000 39.0000 24.8819 79 79 79
171.0000 39.0000 25.1968 80 80 80
174.0000 39.0000 25.5118 81 81 81
177.0000 39.0000 26.1417 83 83 83
180.0000 39.0000 26.4567 84 84 84
183.0000 39.0000 26.7717 85 85 85
186.0000 39.0000 27.0866 86 86 86
189.0000 39.0000 27.4016 87 87 87
192.0000 39.0000 27.7165 88 88 88
195.0000 39.0000 28.0315 89 89 89
198.0000 39.0000 28.6614 91 91 91
0.0000 42.0000 5.0394 16 16 16
3.0000 42.0000 5.3543 17 17 17
6.0000 42.0000 5.6693 18 18 18
9.0000 42.0000 5.9843 19 19 19
12.0000 42.0000 6.2992 20 20 20
15.0000 42.0000 6.6142 21 21 21
18.0000 42.0000 7.2441 23 23 23
21.0000 42.0000 7.5591 24 24 24
24.0000 42.0000 7.8740 25 25 25
27.0000 42.0000 8.1890 26 26 26
30.0000 42.0000 8.5039 27 27 27
33.0000 42.0000 8.8189 28 28 28
36.0000 42.0000 9.1339 29 29 29
39.0000 42.0000 9.7638 31 31 31
42.0000 42.0000 10.0787 32 32 32
45.0000 42.0000 10.3937 33 33 33
48.0000 42.0000 10.7087 34 34 34
51.0000 42.0000 11.0236 35 35 35
54.0000 42.0000 11.3386 36 36 36
57.0000 42.0000 11.9685 38 38 38
60.0000 42.0000 12.2835 39 39 39
63.0000 42.0000 12.5984 40 40 40
66.0000 42.0000 12.9134 41 41 41
69.0000 42.0000 13.2283 42 42 42
72.0000 42.0000 13.5433 43 43 43
75.0000 42.0000 13.8583 44 44 44
78.0000 42.0000 14.4882 46 46 46
81.0000 42.0000 14.8032 47 47 47
84.0000 42.0000 15.1181 48 48 48
87.0000 42.0000 15.4331 49 49 49
90.0000 42.0000 15.7480 50 50 50
93.0000 42.0000 16.0630 51 51 51
96.0000 42.0000 16.6929 53 53 53
99.0000 42.0000 17.0079 54 54 54
102.0000 42.0000 17.3228 55 55 55
105.0000 42.0000 17.6378 56 56 56
108.0000 42.0000 17.9528 57 57 57
111.0000 42.0000 18.2677 58 58 58
114.0000 42.0000 18.5827 59 59 59
117.0000 42.0000 19.2126 61 61 61
120.0000 42.0000 19.5276 62 62 62
123.0000 42.0000 19.8425 63 63 63
126.0000 42.0000 20.1575 64 64 64
129.0000 42.0000 20.4724 65 65 65
132.0000 42.0000 20.7874 66 66 66
135.0000 42.0000 21.4173 68 68 68
138.0000 42.0000 21.7323 69 69 69
141.0000 42.0000 22.0472 70 70 70
144.0000 42.0000 22.3622 71 71 71
147.0000 42.0000 22.6772 72 72 72
150.0000 42.0000 22.9921 73 73 73
153.0000 42.0000 23.3071 74 74 74
156.0000 42.0000 23.9370 76 76 76
159.0000 42.0000 24.2520 77 77 77
162.0000 42.0000 24.5669 78 78 78
165.0000 42.0000 24.8819 79 79 79
168.0000 42.0000 25.1968 80 80 80
171.0000 42.0000 25.5118 81 81 81
174.0000 42.0000 26.1417 83 83 83
177.0000 42.0000 26.4567 84 84 84
180.0000 42.0000 26.7717 85 85 85
183.0000 42.0000 27.0866 86 86 86
186.0000 42.0000 27.4016 87 87 87
189.0000 42.0000 27.7165 88 88 88
192.0000 42.0000 28.0315 89 89 89
195.0000 42.0000 28.6614 91 91 91
198.0000 42.0000 28.9764 92 92 92
0.0000 45.0000 5.3543 17 17 17
3.0000 45.0000 5.6693 18 18 18
6.0000 45.0000 5.9843 19 19 19
9.0000 45.0000 6.2992 20 20 20
12.0000 45.0000 6.6142 21 21 21
15.0000 45.0000 7.2441 23 23 23
18.0000 45.0000 7.5591 24 24 24
21.0000 45.0000 7.8740 25 25 25
24.0000 45.0000 8.1890 26 26 26
27.0000 45.0000 8.5039 27 27 27
30.0000 45.0000 8.8189 28 28 28
33.0000 45.0000 9.1339 29 29 29
36.0000 45.0000 9.7638 31 31 31
39.0000 45.0000 10.0787 32 32 32
42.0000 45.0000 10.3937 33 33 33
45.0000 45.0000 10.7087 34 34 34
48.0000 45.0000 11.0236 35 35 35
51.0000 45.0000 11.3386 36 36 36
54.0000 45.0000 11.9685 38 38 38
57.0000 45.0000 12.5984 39 39 39
60.0000 45.0000 13.8583 40 40 40
63.0000 45.0000 14.8032 41 41 41
66.0000 45.0000 16.0630 44 44 44
69.0000 45.0000 16.6929 47 47 47
72.0000 45.0000 16.6929 47 47 47
75.0000 45.0000 16.3780 46 46 46
78.0000 45.0000 16.0630 47 47 47
81.0000 45.0000 15.4331 48 48 48
84.0000 45.0000 15.4331 49 49 49
87.0000 45.0000 15.7480 50 50 50
90.0000 45.0000 16.0630 51 51 51
93.0000 45.0000 16.6929 53 53 53
96.0000 45.0000 17.0079 54 54 54
99.0000 45.0000 17.3228 55 55 55
102.0000 45.0000 17.6378 56 56 56
105.0000 45.0000 17.9528 57 57 57
108.0000 45.0000 18.2677 58 58 58
111.0000 45.0000 18.5827 59 59 59
114.0000 45.0000 19.2126 61 61 61
117.0000 45.0000 19.5276 62 62 62
120.0000 45.0000 19.8425 63 63 63
123.0000 45.0000 20.1575 64 64 64
126.0000 45.0000 20.4724 65 65 65
129.0000 45.0000 20.7874 66 66 66
132.0000 45.0000 21.4173 68 68 68
135.0000 45.0000 21.7323 69 69 69
138.0000 45.0000 22.0472 70 70 70
141.0000 45.0000 22.3622 71 71 71
144.0000 45.0000 22.6772 72 72 72
147.0000 45.0000 22.9921 73 73 73
150.0000 45.0000 23.3071 74 74 74
153.0000 45.0000 23.9370 76 76 76
156.0000 45.0000 24.2520 77 77 77
159.0000 45.0000 24.5669 78 78 78
162.0000 45.0000 24.8819 79 79 79
165.0000 45.0000 25.1968 80 80 80
168.0000 45.0000 25.5118 81 81 81
171.0000 45.0000 26.1417 83 83 83
174.0000 45.0000 26.4567 84 84 84
177.0000 45.0000 26.7717 85 85 85
180.0000 45.0000 27.0866 86 86 86
183.0000 45.0000 27.4016 87 87 87
186.0000 45.0000 27.7165 88 88 88
189.0000 45.0000 28.0315 89 89 89
192.0000 45.0000 28.6614 91 91 91
195.0000 45.0000 28.9764 92 92 92
198.0000 45.0000 29.2913 93 93 93
0.0000 48.0000 5.6693 18 18 18
3.0000 48.0000 5.9843 19 19 19
6.0000 48.0000 6.2992 20 20 20
9.0000 48.0000 6.6142 21 21 21
12.0000 48.0000 7.2441 23 23 23
15.0000 48.0000 7.5591 24 24 24
18.0000 48.0000 7.8740 25 25 25
21.0000 48.0000 8.1890 26 26 26
24.0000 48.0000 8.5039 27 27 27
27.0000 48.0000 8.8189 28 28 28
30.0000 48.0000 9.1339 29 29 29
33.0000 48.0000 9.7638 31 31 31
36.0000 48.0000 10.0787 32 32 32
39.0000 48.0000 10.3937 33 33 33
42.0000 48.0000 10.7087 34 34 34
45.0000 48.0000 11.0236 35 35 35
48.0000 48.0000 11.9685 36 36 36
51.0000 48.0000 14.4882 38 38 38
54.0000 48.0000 18.5827 60 60 60
57.0000 48.0000 22.6772 73 73 73
60.0000 48.0000 25.5118 82 82 82
63.0000 48.0000 27.4016 89 89 89
66.0000 48.0000 28.6614 92 92 92
69.0000 48.0000 29.2913 94 94 94
72.0000 48.0000 29.2913 94 94 94
75.0000 48.0000 28.3465 91 91 91
78.0000 48.0000 27.0866 87 87 87
81.0000 48.0000 24.8819 80 80 80
84.0000 48.0000 21.7323 69 69 69
87.0000 48.0000 18.8976 54 54 54
90.0000 48.0000 17.0079 53 53 53
93.0000 48.0000 17.0079 54 54 54
96.0000 48.0000 17.3228 55 55 55
99.0000 48.0000 17.6378 56 56 56
102.0000 48.0000 17.9528 57 57 57
105.0000 48.0000 18.2677 58 58 58
108.0000 48.0000 18.5827 59 59 59
111.0000 48.0000 19.2126 61 61 61
114.0000 48.0000 19.5276 62 62 62
117.0000 48.0000 19.8425 63 63 63
120.0000 48.0000 20.1575 64 64 64
123.0000 48.0000 20.4724 65 65 65
126.0000 48.0000 20.7874 66 66 66
129.0000 48.0000 21.4173 68 68 68
132.0000 48.0000 21.7323 69 69 69
135.0000 48.0000 22.0472 70 70 70
138.0000 48.0000 22.3622 71 71 71
141.0000 48.0000 22.6772 72 72 72
144.0000 48.0000 22.9921 73 73 73
147.0000 48.0000 23.3071 74 74 74
150.0000 48.0000 23.9370 76 76 76
153.0000 48.0000 24.2520 77 77 77
156.0000 48.0000 24.5669 78 78 78
159.0000 48.0000 24.8819 79 79 79
162.0000 48.0000 25.1968 80 80 80
165.0000 48.0000 25.5118 81 81 81
168.0000 48.0000 26.1417 83 83 83
171.0000 48.0000 26.4567 84 84 84
174.0000 48.0000 26.7717 85 85 85
177.0000 48.0000 27.0866 86 86 86
180.0000 48.0000 27.4016 87 87 87
183.0000 48.0000 27.7165 88 88 88
186.0000 48.0000 28.0315 89 89 89
189.0000 48.0000 28.6614 91 91 91
192.0000 48.0000 28.9764 92 92 92
195.0000 48.0000 29.2913 93 93 93
198.0000 48.0000 29.6063 94 94 94
0.0000 51.0000 5.9843 19 19 19
3.0000 51.0000 6.2992 20 20 20
6.0000 51.0000 6.6142 21 21 21
9.0000 51.0000 7.2441 23 23 23
12.0000 51.0000 7.5591 24 24 24
15.0000 51.0000 7.8740 25 25 25
18.0000 51.0000 8.1890 26 26 26
21.0000 51.0000 8.5039 27 27 27
24.0000 51.0000 8.8189 28 28 28
27.0000 51.0000 9.1339 29 29 29
30.0000 51.0000 9.7638 31 31 31
33.0000 51.0000 10.0787 32 32 32
36.0000 51.0000 10.3937 33 33 33
39.0000 51.0000 10.7087 34 34 34
42.0000 51.0000 11.6535 35 35 35
45.0000 51.0000 15.7480 47 47 47
48.0000 51.0000 22.0472 72 72 72
51.0000 51.0000 27.0866 88 88 88
54.0000 51.0000 30.8661 99 99 99
57.0000 51.0000 33.7008 108 108 108
60.0000 51.0000 35.9055 114 114 114
63.0000 51.0000 37.1654 119 119 119
66.0000 51.0000 38.1102 122 122 122
69.0000 51.0000 38.7402 123 123 123
72.0000 51.0000 38.4252 123 123 123
75.0000 51.0000 37.7953 121 121 121
78.0000 51.0000 36.8504 117 117 117
81.0000 51.0000 35.2756 112 112 112
84.0000 51.0000 33.0709 105 105 105
87.0000 51.0000 29.9213 96 96 96
90.0000 51.0000 25.8268 83 83 83
93.0000 51.0000 21.1024 65 65 65
96.0000 51.0000 18.2677 56 56 56
99.0000 51.0000 17.9528 57 57 57
102.0000 51.0000 18.2677 58 58 58
105.0000 51.0000 18.5827 59 59 59
108.0000 51.0000 19.2126 61 61 61
111.0000 51.0000 19.5276 62 62 62
114.0000 51.0000 19.8425 63 63 63
117.0000 51.0000 20.1575 64 64 64
120.0000 51.0000 20.4724 65 65 65
123.0000 51.0000 20.7874 66 66 66
126.0000 51.0000 21.4173 68 68 68
129.0000 51.0000 21.7323 69 69 69
132.0000 51.0000 22.0472 70 70 70
135.0000 51.0000 22.3622 71 71 71
138.0000 51.0000 22.6772 72 72 72
141.0000 51.0000 22.9921 73 73 73
144.0000 51.0000 23.3071 74 74 74
147.0000 51.0000 23.9370 76 76 76
150.0000 51.0000 24.2520 77 77 77
153.0000 51.0000 24.5669 78 78 78
156.0000 51.0000 24.8819 79 79 79
159.0000 51.0000 25.1968 80 80 80
162.0000 51.0000 25.5118 81 81 81
165.0000 51.0000 26.1417 83 83 83
168.0000 51.0000 26.4567 84 84 84
171.0000 51.0000 26.7717 85 85 85
174.0000 51.0000 27.0866 86 86 86
177.0000 51.0000 27.4016 87 87 87
180.0000 51.0000 27.7165 88 88 88
183.0000 51.0000 28.0315 89 89 89
186.0000 51.0000 28.6614 91 91 91
189.0000 51.0000 28.9764 92 92 92
192.0000 51.0000 29.2913 93 93 93
195.0000 51.0000 29.6063 94 94 94
198.0000 51.0000 29.9213 95 95 95
0.0000 54.0000 6.6142 20 20 20
3.0000 54.0000 6.6142 21 21 21
6.0000 54.0000 7.2441 23 23 23
9.0000 54.0000 7.5591 24 24 24
12.0000 54.0000 7.8740 25 25 25
15.0000 54.0000 8.1890 26 26 26
18.0000 54.0000 8.5039 27 27 27
21.0000 54.0000 8.8189 28 28 28
24.0000 54.0000 9.1339 29 29 29
27.0000 54.0000 9.7638 31 31 31
30.0000 54.0000 10.0787 32 32 32
33.0000 54.0000 10.3937 33 33 33
36.0000 54.0000 10.7087 34 34 34
39.0000 54.0000 13.8583 35 35 35
42.0000 54.0000 21.4173 69 69 69
45.0000 54.0000 28.0315 90 90 90
48.0000 54.0000 32.7559 105 105 105
51.0000 54.0000 36.5354 116 116 116
54.0000 54.0000 39.3701 125 125 125
57.0000 54.0000 41.5748 132 132 132
60.0000 54.0000 43.1496 138 138 138
63.0000 54.0000 44.4094 141 141 141
66.0000 54.0000 45.0394 144 144 144
69.0000 54.0000 45.6693 145 145 145
72.0000 54.0000 45.3543 145 145 145
75.0000 54.0000 45.0394 143 143 143
78.0000 54.0000 44.0945 140 140 140
81.0000 54.0000 42.8346 136 136 136
84.0000 54.0000 40.9449 130 130 130
87.0000 54.0000 38.4252 123 123 123
90.0000 54.0000 35.2756 113 113 113
93.0000 54.0000 31.1811 100 100 100
96.0000 54.0000 26.1417 84 84 84
99.0000 54.0000 20.7874 60 60 60
102.0000 54.0000 18.8976 59 59 59
105.0000 54.0000 19.2126 61 61 61
108.0000 54.0000 19.5276 62 62 62
111.0000 54.0000 19.8425 63 63 63
114.0000 54.0000 20.1575 64 64 64
117.0000 54.0000 20.4724 65 65 65
120.0000 54.0000 20.7874 66 66 66
123.0000 54.0000 21.4173 68 68 68
126.0000 54.0000 21.7323 69 69 69
129.0000 54.0000 22.0472 70 70 70
132.0000 54.0000 22.3622 71 71 71
135.0000 54.0000 22.6772 72 72 72
138.0000 54.0000 22.9921 73 73 73
141.0000 54.0000 23.3071 74 74 74
144.0000 54.0000 23.9370 76 76 76
147.0000 54.0000 24.2520 77 77 77
150.0000 54.0000 24.5669 78 78 78
153.0000 54.0000 24.8819 79 79 79
156.0000 54.0000 25.1968 80 80 80
159.0000 54.0000 25.5118 81 81 81
162.0000 54.0000 26.1417 83 83 83
165.0000 54.0000 26.4567 84 84 84
168.0000 54.0000 26.7717 85 85 85
171.0000 54.0000 27.0866 86 86 86
174.0000 54.0000 27.4016 87 87 87
177.0000 54.0000 27.7165 88 88 88
180.0000 54.0000 28.0315 89 89 89
183.0000 54.0000 28.6614 91 91 91
186.0000 54.0000 28.9764 92 92 92
189.0000 54.0000 29.2913 93 93 93
192.0000 54.0000 29.6063 94 94 94
195.0000 54.0000 29.9213 95 95 95
198.0000 54.0000 30.2362 96 96 96
0.0000 57.0000 6.9291 21 21 21
3.0000 57.0000 7.2441 23 23 23
6.0000 57.0000 7.5591 24 24 24
9.0000 57.0000 7.8740 25 25 25
12.0000 57.0000 8.1890 26 26 26
15.0000 57.0000 8.5039 27 27 27
18.0000 57.0000 8.8189 28 28 28
21.0000 57.0000 9.1339 29 29 29
24.0000 57.0000 9.7638 31 31 31
27.0000 57.0000 10.0787 32 32 32
30.0000 57.0000 10.3937 33 33 33
33.0000 57.0000 11.0236 34 34 34
36.0000 57.0000 16.3780 52 52 52
39.0000 57.0000 25.1968 82 82 82
42.0000 57.0000 31.8110 102 102 102
45.0000 57.0000 36.5354 117 117 117
48.0000 57.0000 40.3150 129 129 129
51.0000 57.0000 43.4646 138 138 138
54.0000 57.0000 45.6693 146 146 146
57.0000 57.0000 47.5591 152 152 152
60.0000 57.0000 49.1339 156 156 156
63.0000 57.0000 50.3937 160 160 160
66.0000 57.0000 51.0236 162 162 162
69.0000 57.0000 51.3386 163 163 163
72.0000 57.0000 51.0236 163 163 163
75.0000 57.0000 50.7087 161 161 161
78.0000 57.0000 50.0787 159 159 159
81.0000 57.0000 48.8189 155 155 155
84.0000 57.0000 47.2441 150 150 150
87.0000 57.0000 45.0394 143 143 143
90.0000 57.0000 42.5197 135 135 135
93.0000 57.0000 39.0551 125 125 125
96.0000 57.0000 35.2756 112 112 112
99.0000 57.0000 29.9213 96 96 96
102.0000 57.0000 23.3071 73 73 73
105.0000 57.0000 19.8425 62 62 62
108.0000 57.0000 19.8425 63 63 63
111.0000 57.0000 20.1575 64 64 64
114.0000 57.0000 20.4724 65 65 65
117.0000 57.0000 20.7874 66 66 66
120.0000 57.0000 21.4173 68 68 68
123.0000 57.0000 21.7323 69 69 69
126.0000 57.0000 22.0472 70 70 70
129.0000 57.0000 22.3622 71 71 71
132.0000 57.0000 22.6772 72 72 72
135.0000 57.0000 22.9921 73 73 73
138.0000 57.0000 23.3071 74 74 74
141.0000 57.0000 23.9370 76 76 76
144.0000 57.0000 24.2520 77 77 77
147.0000 57.0000 24.5669 78 78 78
150.0000 57.0000 24.8819 79 79 79
153.0000 57.0000 25.1968 80 80 80
156.0000 57.0000 25.5118 81 81 81
159.0000 57.0000 26.1417 83 83 83
162.0000 57.0000 26.4567 84 84 84
165.0000 57.0000 26.7717 85 85 85
168.0000 57.0000 27.0866 86 86 86
171.0000 57.0000 27.4016 87 87 87
174.0000 57.0000 27.7165 88 88 88
177.0000 57.0000 28.0315 89 89 89
180.0000 57.0000 28.6614 91 91 91
183.0000 57.0000 28.9764 92 92 92
186.0000 57.0000 29.2913 93 93 93
189.0000 57.0000 29.6063 94 94 94
192.0000 57.0000 29.9213 95 95 95
195.0000 57.0000 30.2362 96 96 96
198.0000 57.0000 30.8661 98 98 98
0.0000 60.0000 7.2441 23 23 23
3.0000 60.0000 7.5591 24 24 24
6.0000 60.0000 7.8740 25 25 25
9.0000 60.0000 8.1890 26 26 26
12.0000 60.0000 8.5039 27 27 27
15.0000 60.0000 8.8189 28 28 28
18.0000 60.0000 9.1339 29 29 29
21.0000 60.0000 9.7638 31 31 31
24.0000 60.0000 10.0787 32 32 32
27.0000 60.0000 10.3937 33 33 33
30.0000 60.0000 11.3386 34 34 34
33.0000 60.0000 17.9528 58 58 58
36.0000 60.0000 27.4016 88 88 88
39.0000 60.0000 34.0157 109 109 109
42.0000 60.0000 39.0551 124 124 124
45.0000 60.0000 43.1496 137 137 137
48.0000 60.0000 46.2992 147 147 147
51.0000 60.0000 48.8189 156 156 156
54.0000 60.0000 51.0236 162 162 162
57.0000 60.0000 52.9134 168 168 168
60.0000 60.0000 54.1732 172 172 172
63.0000 60.0000 55.1181 175 175 175
66.0000 60.0000 55.7480 177 177 177
69.0000 60.0000 56.0630 178 178 178
72.0000 60.0000 56.0630 178 178 178
75.0000 60.0000 55.4331 177 177 177
78.0000 60.0000 54.8031 174 174 174
81.0000 60.0000 53.8583 171 171 171
84.0000 60.0000 52.2835 166 166 166
87.0000 60.0000 50.3937 160 160 160
90.0000 60.0000 48.1890 153 153 153
93.0000 60.0000 45.3543 144 144 144
96.0000 60.0000 41.8898 133 133 133
99.0000 60.0000 37.4803 120 120 120
102.0000 60.0000 32.1260 103 103 103
105.0000 60.0000 25.1968 80 80 80
108.0000 60.0000 20.4724 64 64 64
111.0000 60.0000 20.4724 65 65 65
114.0000 60.0000 20.7874 66 66 66
117.0000 60.0000 21.4173 68 68 68
120.0000 60.0000 21.7323 69 69 69
123.0000 60.0000 22.0472 70 70 70
126.0000 60.0000 22.3622 71 71 71
129.0000 60.0000 22.6772 72 72 72
132.0000 60.0000 22.9921 73 73 73
135.0000 60.0000 23.3071 74 74 74
138.0000 60.0000 23.9370 76 76 76
141.0000 60.0000 24.2520 77 77 77
144.0000 60.0000 24.5669 78 78 78
147.0000 60.0000 24.8819 79 79 79
150.0000 60.0000 25.1968 80 80 80
153.0000 60.0000 25.5118 81 81 81
156.0000 60.0000 26.1417 83 83 83
159.0000 60.0000 26.4567 84 84 84
162.0000 60.0000 26.7717 85 85 85
165.0000 60.0000 27.0866 86 86 86
168.0000 60.0000 27.4016 87 87 87
171.0000 60.0000 27.7165 88 88 88
174.0000 60.0000 28.0315 89 89 89
177.0000 60.0000 28.6614 91 91 91
180.0000 60.0000 28.9764 92 92 92
183.0000 60.0000 29.2913 93 93 93
186.0000 60.0000 29.6063 94 94 94
189.0000 60.0000 29.9213 95 95 95
192.0000 60.0000 30.2362 96 96 96
195.0000 60.0000 30.8661 98 98 98
198.0000 60.0000 31.1811 99 99 99
0.0000 63.0000 7.5591 24 24 24
3.0000 63.0000 7.8740 25 25 25
6.0000 63.0000 8.1890 26 26 26
9.0000 63.0000 8.5039 27 27 27
12.0000 63.0000 8.8189 28 28 28
15.0000 63.0000 9.1339 29 29 29
18.0000 63.0000 9.7638 31 31 31
21.0000 63.0000 10.0787 32 32 32
24.0000 63.0000 10.3937 33 33 33
27.0000 63.0000 11.0236 34 34 34
30.0000 63.0000 17.9528 58 58 58
33.0000 63.0000 28.0315 90 90 90
36.0000 63.0000 35.2756 112 112 112
39.0000 63.0000 40.6299 129 129 129
42.0000 63.0000 44.7244 142 142 142
45.0000 63.0000 48.1890 153 153 153
48.0000 63.0000 51.3386 163 163 163
51.0000 63.0000 53.5433 170 170 170
54.0000 63.0000 55.4331 177 177 177
57.0000 63.0000 57.0079 182 182 182
60.0000 63.0000 58.2677 185 185 185
63.0000 63.0000 59.2126 188 188 188
66.0000 63.0000 59.8425 190 190 190
69.0000 63.0000 60.1575 191 191 191
72.0000 63.0000 60.1575 191 191 191
75.0000 63.0000 59.5276 190 190 190
78.0000 63.0000 58.8976 187 187 187
81.0000 63.0000 57.9528 184 184 184
84.0000 63.0000 56.6929 180 180 180
87.0000 63.0000 54.8031 175 175 175
90.0000 63.0000 52.9134 168 168 168
93.0000 63.0000 50.3937 160 160 160
96.0000 63.0000 47.2441 150 150 150
99.0000 63.0000 43.4646 138 138 138
102.0000 63.0000 38.7402 124 124 124
105.0000 63.0000 33.0709 106 106 106
108.0000 63.0000 25.5118 81 81 81
111.0000 63.0000 21.1024 66 66 66
114.0000 63.0000 21.4173 68 68 68
117.0000 63.0000 21.7323 69 69 69
120.0000 63.0000 22.0472 70 70 70
123.0000 63.0000 22.3622 71 71 71
126.0000 63.0000 22.6772 72 72 72
129.0000 63.0000 22.9921 73 73 73
132.0000 63.0000 23.3071 74 74 74
135.0000 63.0000 23.9370 76 76 76
138.0000 63.0000 24.2520 77 77 77
141.0000 63.0000 24.5669 78 78 78
144.0000 63.0000 24.8819 79 79 79
147.0000 63.0000 25.1968 80 80 80
150.0000 63.0000 25.5118 81 81 81
153.0000 63.0000 26.1417 83 83 83
156.0000 63.0000 26.4567 84 84 84
159.0000 63.0000 26.7717 85 85 85
162.0000 63.0000 27.0866 86 86 86
165.0000 63.0000 27.4016 87 87 87
168.0000 63.0000 27.7165 88 88 88
171.0000 63.0000 28.0315 89 89 89
174.0000 63.0000 28.6614 91 91 91
177.0000 63.0000 28.9764 92 92 92
180.0000 63.0000 29.2913 93 93 93
183.0000 63.0000 29.6063 94 94 94
186.0000 63.0000 29.9213 95 95 95
189.0000 63.0000 30.2362 96 96 96
192.0000 63.0000 30.8661 98 98 98
195.0000 63.0000 31.1811 99 99 99
198.0000 63.0000 31.4961 100 100 100
0.0000 66.0000 7.8740 25 25 25
3.0000 66.0000 8.1890 26 26 26
6.0000 66.0000 8.5039 27 27 27
9.0000 66.0000 8.8189 28 28 28
12.0000 66.0000 9.1339 29 29 29
15.0000 66.0000 9.7638 31 31 31
18.0000 66.0000 10.0787 32 32 32
21.0000 66.0000 10.3937 33 33 33
24.0000 66.0000 10.7087 34 34 34
27.0000 66.0000 16.3780 52 52 52
30.0000 66.0000 27.4016 88 88 88
33.0000 66.0000 35.2756 112 112 112
36.0000 66.0000 40.9449 130 130 130
39.0000 66.0000 45.6693 145 145 145
42.0000 66.0000 49.4488 157 157 157
45.0000 66.0000 52.5984 167 167 167
48.0000 66.0000 55.4331 176 176 176
51.0000 66.0000 57.6378 183 183 183
54.0000 66.0000 59.2126 189 189 189
57.0000 66.0000 60.7874 193 193 193
60.0000 66.0000 62.0472 197 197 197
63.0000 66.0000 62.6772 200 200 200
66.0000 66.0000 63.3071 201 201 201
69.0000 66.0000 63.6220 202 202 202
72.0000 66.0000 63.6220 202 202 202
75.0000 66.0000 63.3071 201 201 201
78.0000 66.0000 62.6772 199 199 199
81.0000 66.0000 61.7323 196 196 196
84.0000 66.0000 60.4724 192 192 192
87.0000 66.0000 58.8976 187 187 187
90.0000 66.0000 56.6929 181 181 181
93.0000 66.0000 54.4882 173 173 173
96.0000 66.0000 51.6535 164 164 164
99.0000 66.0000 48.1890 153 153 153
102.0000 66.0000 44.0945 140 140 140
105.0000 66.0000 39.0551 125 125 125
108.0000 66.0000 32.7559 105 105 105
111.0000 66.0000 24.8819 78 78 78
114.0000 66.0000 21.7323 69 69 69
117.0000 66.0000 22.0472 70 70 70
120.0000 66.0000 22.3622 71 71 71
123.0000 66.0000 22.6772 72 72 72
126.0000 66.0000 22.9921 73 73 73
129.0000 66.0000 23.3071 74 74 74
132.0000 66.0000 23.9370 76 76 76
135.0000 66.0000 24.2520 77 77 77
138.0000 66.0000 24.5669 78 78 78
141.0000 66.0000 24.8819 79 79 79
144.0000 66.0000 25.1968 80 80 80
147.0000 66.0000 25.5118 81 81 81
150.0000 66.0000 26.1417 83 83 83
153.0000 66.0000 26.4567 84 84 84
156.0000 66.0000 26.7717 85 85 85
159.0000 66.0000 27.0866 86 86 86
162.0000 66.0000 27.4016 87 87 87
165.0000 66.0000 27.7165 88 88 88
168.0000 66.0000 28.0315 89 89 89
171.0000 66.0000 28.6614 91 91 91
174.0000 66.0000 28.9764 92 92 92
177.0000 66.0000 29.2913 93 93 93
180.0000 66.0000 29.6063 94 94 94
183.0000 66.0000 29.9213 95 95 95
186.0000 66.0000 30.2362 96 96 96
189.0000 66.0000 30.8661 98 98 98
192.0000 66.0000 31.1811 99 99 99
195.0000 66.0000 31.4961 100 100 100
198.0000 66.0000 31.8110 101 101 101
0.0000 69.0000 8.1890 26 26 26
3.0000 69.0000 8.5039 27 27 27
6.0000 69.0000 8.8189 28 28 28
9.0000 69.0000 9.1339 29 29 29
12.0000 69.0000 9.7638 31 31 31
15.0000 69.0000 10.0787 32 32 32
18.0000 69.0000 10.3937 33 33 33
21.0000 69.0000 10.7087 34 34 34
24.0000 69.0000 13.8583 35 35 35
27.0000 69.0000 25.1968 82 82 82
30.0000 69.0000 34.0157 109 109 109
33.0000 69.0000 40.6299 129 129 129
36.0000 69.0000 45.6693 145 145 145
39.0000 69.0000 49.7638 158 158 158
42.0000 69.0000 53.2283 169 169 169
45.0000 69.0000 56.3780 179 179 179
48.0000 69.0000 58.8976 187 187 187
51.0000 69.0000 60.7874 193 193 193
54.0000 69.0000 62.6772 199 199 199
57.0000 69.0000 63.9370 203 203 203
60.0000 69.0000 65.1969 207 207 207
63.0000 69.0000 65.8268 209 209 209
66.0000 69.0000 66.4567 211 211 211
69.0000 69.0000 66.7717 212 212 212
72.0000 69.0000 66.7717 212 212 212
75.0000 69.0000 66.4567 211 211 211
78.0000 69.0000 65.8268 209 209 209
81.0000 69.0000 64.8819 206 206 206
84.0000 69.0000 63.6220 202 202 202
87.0000 69.0000 62.0472 197 197 197
90.0000 69.0000 60.1575 191 191 191
93.0000 69.0000 57.9528 184 184 184
96.0000 69.0000 55.4331 176 176 176
99.0000 69.0000 52.2835 166 166 166
102.0000 69.0000 48.5039 154 154 154
105.0000 69.0000 44.0945 140 140 140
108.0000 69.0000 38.4252 123 123 123
111.0000 69.0000 31.4961 101 101 101
114.0000 69.0000 23.6220 70 70 70
117.0000 69.0000 22.3622 71 71 71
120.0000 69.0000 22.6772 72 72 72
123.0000 69.0000 22.9921 73 73 73
126.0000 69.0000 23.3071 74 74 74
129.0000 69.0000 23.9370 76 76 76
132.0000 69.0000 24.2520 77 77 77
135.0000 69.0000 24.5669 78 78 78
138.0000 69.0000 24.8819 79 79 79
141.0000 69.0000 25.1968 80 80 80
144.0000 69.0000 25.5118 81 81 81
147.0000 69.0000 26.1417 83 83 83
150.0000 69.0000 26.4567 84 84 84
153.0000 69.0000 26.7717 85 85 85
156.0000 69.0000 27.0866 86 86 86
159.0000 69.0000 27.4016 87 87 87
162.0000 69.0000 27.7165 88 88 88
165.0000 69.0000 28.0315 89 89 89
168.0000 69.0000 28.6614 91 91 91
171.0000 69.0000 28.9764 92 92 92
174.0000 69.0000 29.2913 93 93 93
177.0000 69.0000 29.6063 94 94 94
180.0000 69.0000 29.9213 95 95 95
183.0000 69.0000 30.2362 96 96 96
186.0000 69.0000 30.8661 98 98 98
189.0000 69.0000 31.1811 99 99 99
192.0000 69.0000 31.4961 100 100 100
195.0000 69.0000 31.8110 101 101 101
198.0000 69.0000 32.1260 102 102 102
0.0000 72.0000 8.8189 27 27 27
3.0000 72.0000 8.8189 28 28 28
6.0000 72.0000 9.1339 29 29 29
9.0000 72.0000 9.7638 31 31 31
12.0000 72.0000 10.0787 32 32 32
15.0000 72.0000 10.3937 33 33 33
18.0000 72.0000 10.7087 34 34 34
21.0000 72.0000 11.6535 35 35 35
24.0000 72.0000 21.4173 69 69 69
27.0000 72.0000 31.8110 102 102 102
30.0000 72.0000 39.0551 124 124 124
33.0000 72.0000 44.7244 142 142 142
36.0000 72.0000 49.4488 157 157 157
39.0000 72.0000 53.2283 169 169 169
42.0000 72.0000 56.6929 180 180 180
45.0000 72.0000 59.5276 189 189 189
