ply
format ascii 1.0
element vertex 1366
property float x
property float y
property float z
property uchar red
property uchar green
property uchar blue
end_header
222.0000 21.0000 25.4694 110 78 83
225.0000 21.0000 24.8163 108 77 82
228.0000 21.0000 23.5102 104 73 78
231.0000 21.0000 22.2041 99 68 73
234.0000 21.0000 21.2245 98 65 71
237.0000 21.0000 20.2449 94 62 69
240.0000 21.0000 19.5918 91 60 68
243.0000 21.0000 18.9388 88 59 66
246.0000 21.0000 18.2857 84 58 65
249.0000 21.0000 17.9592 83 56 65
252.0000 21.0000 17.9592 83 56 66
255.0000 21.0000 18.2857 84 57 66
258.0000 21.0000 18.9388 85 59 70
261.0000 21.0000 20.2449 88 64 76
264.0000 21.0000 22.5306 95 71 87
267.0000 21.0000 25.7959 104 80 98
270.0000 21.0000 31.0204 117 96 112
273.0000 21.0000 41.7959 143 131 149
276.0000 21.0000 55.1837 179 175 195
279.0000 21.0000 65.3061 210 209 225
282.0000 21.0000 67.9184 214 218 232
285.0000 21.0000 67.9184 214 218 232
288.0000 21.0000 67.5918 212 217 231
291.0000 21.0000 67.9184 212 218 232
294.0000 21.0000 67.9184 212 218 232
297.0000 21.0000 67.9184 212 218 232
300.0000 21.0000 67.5918 210 218 231
303.0000 21.0000 66.9388 209 215 229
306.0000 21.0000 64.0000 204 209 221
309.0000 21.0000 56.8163 179 183 194
312.0000 21.0000 55.1837 175 179 187
315.0000 21.0000 49.9592 166 167 180
318.0000 21.0000 33.3061 112 103 118
321.0000 21.0000 22.8571 83 66 75
0.0000 24.0000 13.0612 72 41 38
3.0000 24.0000 13.0612 72 42 39
6.0000 24.0000 12.7347 69 40 37
9.0000 24.0000 12.4082 68 40 36
12.0000 24.0000 12.4082 69 38 37
15.0000 24.0000 11.1020 65 35 34
18.0000 24.0000 10.1224 60 30 29
21.0000 24.0000 10.4490 62 30 30
24.0000 24.0000 13.0612 75 37 40
27.0000 24.0000 16.3265 89 48 49
30.0000 24.0000 19.2653 103 54 57
33.0000 24.0000 21.8776 114 63 65
36.0000 24.0000 23.8367 121 70 70
39.0000 24.0000 25.1429 126 74 74
42.0000 24.0000 25.4694 127 75 75
45.0000 24.0000 25.4694 126 76 73
48.0000 24.0000 24.4898 121 73 70
51.0000 24.0000 23.1837 115 69 67
54.0000 24.0000 21.8776 110 65 64
57.0000 24.0000 20.5714 107 60 61
60.0000 24.0000 18.9388 100 56 56
63.0000 24.0000 17.6327 93 55 53
66.0000 24.0000 16.3265 86 50 47
69.0000 24.0000 14.6939 82 47 46
72.0000 24.0000 13.7143 77 44 44
75.0000 24.0000 13.0612 73 42 44
78.0000 24.0000 12.7347 72 41 42
81.0000 24.0000 12.7347 71 41 42
84.0000 24.0000 12.7347 69 39 40
87.0000 24.0000 14.3673 69 42 42
90.0000 24.0000 19.5918 75 52 54
93.0000 24.0000 29.0612 99 79 78
96.0000 24.0000 38.8571 159 142 141
99.0000 24.0000 40.4898 169 156 158
102.0000 24.0000 44.7347 170 161 161
105.0000 24.0000 37.5510 132 122 123
108.0000 24.0000 27.4286 98 78 81
111.0000 24.0000 21.2245 83 58 57
114.0000 24.0000 17.6327 64 44 42
117.0000 24.0000 17.3061 61 43 44
120.0000 24.0000 18.6122 80 58 59
123.0000 24.0000 15.0204 70 43 44
126.0000 24.0000 14.6939 69 43 45
129.0000 24.0000 12.0816 65 34 39
132.0000 24.0000 11.4286 68 35 40
135.0000 24.0000 12.0816 65 38 44
138.0000 24.0000 16.3265 78 47 52
141.0000 24.0000 21.8776 99 63 66
144.0000 24.0000 20.2449 100 66 66
147.0000 24.0000 17.9592 90 55 54
150.0000 24.0000 19.2653 97 60 59
153.0000 24.0000 20.2449 100 62 60
156.0000 24.0000 21.2245 104 66 60
159.0000 24.0000 23.1837 114 67 63
162.0000 24.0000 22.8571 109 70 67
165.0000 24.0000 23.5102 115 69 73
168.0000 24.0000 22.5306 106 70 72
171.0000 24.0000 23.1837 103 81 87
174.0000 24.0000 23.8367 96 81 89
177.0000 24.0000 18.6122 82 62 70
180.0000 24.0000 19.9184 89 63 70
183.0000 24.0000 21.5510 87 68 75
186.0000 24.0000 22.2041 90 73 76
189.0000 24.0000 21.8776 100 71 72
192.0000 24.0000 22.8571 104 73 75
195.0000 24.0000 23.5102 109 75 77
198.0000 24.0000 23.8367 111 74 77
201.0000 24.0000 24.1633 111 75 75
204.0000 24.0000 24.1633 111 75 76
207.0000 24.0000 23.5102 108 73 74
210.0000 24.0000 23.1837 107 73 74
213.0000 24.0000 23.1837 105 71 75
216.0000 24.0000 22.2041 104 68 73
219.0000 24.0000 21.8776 104 68 74
222.0000 24.0000 21.5510 98 69 73
225.0000 24.0000 20.8980 95 66 71
228.0000 24.0000 19.9184 91 63 67
231.0000 24.0000 18.9388 89 60 64
234.0000 24.0000 18.6122 86 58 65
237.0000 24.0000 17.9592 83 57 64
240.0000 24.0000 17.3061 81 55 64
243.0000 24.0000 16.6531 78 54 63
246.0000 24.0000 16.3265 74 53 60
249.0000 24.0000 16.3265 75 54 62
252.0000 24.0000 16.6531 75 53 63
255.0000 24.0000 16.9796 77 54 63
258.0000 24.0000 17.6327 80 57 69
261.0000 24.0000 18.9388 83 61 73
264.0000 24.0000 21.5510 90 68 82
267.0000 24.0000 25.4694 105 79 96
270.0000 24.0000 29.7143 116 92 108
273.0000 24.0000 37.5510 135 117 134
276.0000 24.0000 48.6531 163 152 170
279.0000 24.0000 60.7347 198 196 210
282.0000 24.0000 66.9388 212 215 228
285.0000 24.0000 67.5918 213 217 229
288.0000 24.0000 67.5918 212 217 231
291.0000 24.0000 67.5918 211 217 231
294.0000 24.0000 67.9184 212 218 232
297.0000 24.0000 67.9184 212 218 232
300.0000 24.0000 67.5918 211 217 231
303.0000 24.0000 66.6122 210 214 228
306.0000 24.0000 62.6939 200 204 216
309.0000 24.0000 55.5102 176 180 191
312.0000 24.0000 55.5102 174 181 190
315.0000 24.0000 54.2041 174 180 192
318.0000 24.0000 43.7551 141 140 153
321.0000 24.0000 31.6735 95 83 93
0.0000 27.0000 14.0408 75 44 39
3.0000 27.0000 14.0408 75 44 40
6.0000 27.0000 14.0408 75 44 39
9.0000 27.0000 14.0408 76 44 40
12.0000 27.0000 14.6939 79 46 42
15.0000 27.0000 14.6939 81 44 41
18.0000 27.0000 14.6939 80 45 42
21.0000 27.0000 13.3878 73 41 37
24.0000 27.0000 13.3878 72 39 37
27.0000 27.0000 14.0408 76 39 37
30.0000 27.0000 14.6939 83 40 40
33.0000 27.0000 16.3265 91 44 44
36.0000 27.0000 17.3061 94 47 45
39.0000 27.0000 17.6327 96 49 47
42.0000 27.0000 18.2857 98 51 50
45.0000 27.0000 18.2857 98 53 50
48.0000 27.0000 17.9592 96 52 49
51.0000 27.0000 17.3061 93 51 49
54.0000 27.0000 16.9796 90 50 48
57.0000 27.0000 16.9796 91 50 51
60.0000 27.0000 15.6735 85 48 48
63.0000 27.0000 13.7143 74 41 39
66.0000 27.0000 11.7551 65 36 34
69.0000 27.0000 10.1224 58 32 32
72.0000 27.0000 9.1429 52 29 31
75.0000 27.0000 8.8163 49 28 30
78.0000 27.0000 9.7959 49 29 31
81.0000 27.0000 14.3673 53 35 37
84.0000 27.0000 24.8163 86 70 70
87.0000 27.0000 34.6122 134 118 119
90.0000 27.0000 39.5102 153 139 140
93.0000 27.0000 38.5306 153 137 135
96.0000 27.0000 22.2041 75 54 52
99.0000 27.0000 16.9796 60 37 39
102.0000 27.0000 36.5714 150 134 136
105.0000 27.0000 42.4490 146 135 138
108.0000 27.0000 36.2449 143 114 116
111.0000 27.0000 29.0612 128 81 81
114.0000 27.0000 36.8980 152 113 111
117.0000 27.0000 47.0204 178 159 158
120.0000 27.0000 43.1020 154 145 143
123.0000 27.0000 34.9388 126 112 112
126.0000 27.0000 31.6735 132 117 117
129.0000 27.0000 19.9184 80 57 59
132.0000 27.0000 13.0612 63 32 36
135.0000 27.0000 19.9184 93 60 62
138.0000 27.0000 23.8367 115 81 81
141.0000 27.0000 20.2449 101 67 65
144.0000 27.0000 13.0612 66 35 36
147.0000 27.0000 13.3878 69 41 44
150.0000 27.0000 13.7143 74 43 45
153.0000 27.0000 14.6939 76 44 45
156.0000 27.0000 18.2857 87 48 45
159.0000 27.0000 24.8163 129 82 79
162.0000 27.0000 18.9388 89 49 48
165.0000 27.0000 17.9592 96 49 55
168.0000 27.0000 20.5714 103 63 66
171.0000 27.0000 17.9592 80 52 58
174.0000 27.0000 21.5510 91 68 74
177.0000 27.0000 13.3878 58 32 39
180.0000 27.0000 19.5918 94 63 69
183.0000 27.0000 26.7755 111 88 90
186.0000 27.0000 25.1429 106 83 86
189.0000 27.0000 18.9388 89 57 60
192.0000 27.0000 17.6327 87 55 57
195.0000 27.0000 17.6327 87 55 58
198.0000 27.0000 17.6327 87 55 57
201.0000 27.0000 17.9592 88 57 60
204.0000 27.0000 17.3061 84 54 58
207.0000 27.0000 16.3265 81 53 57
210.0000 27.0000 16.3265 80 52 57
213.0000 27.0000 16.0000 78 51 56
216.0000 27.0000 15.3469 76 50 56
219.0000 27.0000 14.6939 73 48 55
222.0000 27.0000 14.3673 68 49 54
225.0000 27.0000 13.7143 66 47 52
228.0000 27.0000 13.3878 66 46 51
231.0000 27.0000 13.0612 64 44 49
234.0000 27.0000 13.3878 64 46 52
237.0000 27.0000 13.0612 63 44 52
240.0000 27.0000 12.7347 61 44 52
243.0000 27.0000 12.7347 60 44 52
246.0000 27.0000 12.7347 60 45 53
249.0000 27.0000 12.7347 59 44 53
252.0000 27.0000 13.3878 62 47 57
255.0000 27.0000 14.0408 64 47 58
258.0000 27.0000 14.6939 67 49 61
261.0000 27.0000 16.3265 73 54 66
264.0000 27.0000 18.6122 81 62 74
267.0000 27.0000 22.2041 94 70 87
270.0000 27.0000 26.7755 109 84 98
273.0000 27.0000 33.9592 127 106 119
276.0000 27.0000 43.1020 150 134 151
279.0000 27.0000 53.5510 177 168 184
282.0000 27.0000 63.0204 204 204 217
285.0000 27.0000 67.2653 215 217 229
288.0000 27.0000 67.5918 213 217 231
291.0000 27.0000 67.5918 211 217 231
294.0000 27.0000 67.9184 212 218 232
297.0000 27.0000 67.9184 212 218 232
300.0000 27.0000 67.5918 212 216 231
303.0000 27.0000 66.2857 210 213 227
306.0000 27.0000 61.0612 196 198 211
309.0000 27.0000 54.8571 174 176 188
312.0000 27.0000 55.1837 175 180 191
315.0000 27.0000 54.5306 170 177 190
318.0000 27.0000 50.9388 165 171 183
321.0000 27.0000 43.1020 128 125 137
0.0000 30.0000 15.6735 79 48 43
3.0000 30.0000 15.6735 81 50 43
6.0000 30.0000 15.6735 83 49 43
9.0000 30.0000 16.3265 84 49 43
12.0000 30.0000 16.9796 86 53 46
15.0000 30.0000 17.3061 89 52 47
18.0000 30.0000 17.9592 94 55 50
21.0000 30.0000 16.9796 89 52 47
24.0000 30.0000 16.9796 91 52 46
27.0000 30.0000 16.9796 90 51 44
30.0000 30.0000 17.6327 94 53 49
33.0000 30.0000 18.2857 97 55 49
36.0000 30.0000 18.6122 98 56 49
39.0000 30.0000 18.2857 96 55 48
42.0000 30.0000 17.9592 96 54 47
45.0000 30.0000 17.6327 94 51 47
48.0000 30.0000 16.6531 88 47 45
51.0000 30.0000 16.0000 86 47 45
54.0000 30.0000 15.0204 85 49 48
57.0000 30.0000 15.6735 83 51 52
60.0000 30.0000 18.6122 89 57 58
63.0000 30.0000 15.3469 77 44 45
66.0000 30.0000 13.3878 71 40 40
69.0000 30.0000 13.3878 61 37 40
72.0000 30.0000 15.6735 56 36 39
75.0000 30.0000 21.2245 77 58 61
78.0000 30.0000 29.3878 123 107 110
81.0000 30.0000 37.2245 146 135 136
84.0000 30.0000 39.8367 146 136 137
87.0000 30.0000 35.9184 133 123 124
90.0000 30.0000 30.3673 119 106 105
93.0000 30.0000 25.7959 110 89 86
96.0000 30.0000 19.2653 95 61 60
99.0000 30.0000 18.9388 107 67 70
102.0000 30.0000 25.7959 113 93 94
105.0000 30.0000 31.6735 145 134 135
108.0000 30.0000 21.2245 82 55 52
111.0000 30.0000 27.4286 115 81 72
114.0000 30.0000 47.3469 192 170 160
117.0000 30.0000 53.5510 193 185 179
120.0000 30.0000 52.8980 189 185 181
123.0000 30.0000 52.2449 183 178 178
126.0000 30.0000 46.3673 159 150 150
129.0000 30.0000 38.5306 130 114 114
132.0000 30.0000 34.9388 118 95 96
135.0000 30.0000 37.8775 131 106 111
138.0000 30.0000 33.3061 110 89 95
141.0000 30.0000 26.7755 90 74 82
144.0000 30.0000 22.5306 79 61 68
147.0000 30.0000 17.6327 74 51 56
150.0000 30.0000 14.3673 68 41 45
153.0000 30.0000 15.0204 81 52 56
156.0000 30.0000 18.6122 95 56 59
159.0000 30.0000 23.1837 113 66 67
162.0000 30.0000 21.5510 115 76 73
165.0000 30.0000 16.6531 92 48 50
168.0000 30.0000 23.5102 111 67 70
171.0000 30.0000 21.8776 86 52 55
174.0000 30.0000 26.4490 114 84 88
177.0000 30.0000 23.1837 90 62 67
180.0000 30.0000 14.6939 62 35 39
183.0000 30.0000 21.8776 98 73 71
186.0000 30.0000 24.4898 109 80 85
189.0000 30.0000 18.6122 76 49 52
192.0000 30.0000 14.6939 67 42 45
195.0000 30.0000 13.7143 66 42 44
198.0000 30.0000 14.0408 64 42 44
201.0000 30.0000 13.0612 63 39 44
204.0000 30.0000 11.7551 57 35 42
207.0000 30.0000 10.7755 52 34 41
210.0000 30.0000 10.7755 51 33 41
213.0000 30.0000 10.4490 50 34 42
216.0000 30.0000 9.4694 45 30 40
219.0000 30.0000 9.1429 43 30 39
222.0000 30.0000 9.1429 44 33 40
225.0000 30.0000 9.1429 42 31 39
228.0000 30.0000 9.1429 42 30 40
231.0000 30.0000 8.8163 42 30 39
234.0000 30.0000 9.1429 45 31 38
237.0000 30.0000 9.7959 45 32 40
240.0000 30.0000 10.4490 46 34 43
243.0000 30.0000 10.7755 47 36 45
246.0000 30.0000 10.4490 45 35 43
249.0000 30.0000 10.7755 48 38 47
252.0000 30.0000 11.7551 51 40 51
255.0000 30.0000 12.0816 53 40 52
258.0000 30.0000 12.7347 56 42 53
261.0000 30.0000 14.3673 63 46 57
264.0000 30.0000 16.3265 69 51 63
267.0000 30.0000 19.2653 78 61 74
270.0000 30.0000 22.8571 91 70 82
273.0000 30.0000 29.3878 111 91 103
276.0000 30.0000 37.5510 134 118 131
279.0000 30.0000 45.0612 151 141 157
282.0000 30.0000 55.1837 182 180 193
285.0000 30.0000 61.7143 202 203 215
288.0000 30.0000 63.3469 203 208 222
291.0000 30.0000 64.0000 205 210 224
294.0000 30.0000 64.3265 206 210 224
297.0000 30.0000 64.6531 206 212 225
300.0000 30.0000 65.3061 210 213 227
303.0000 30.0000 64.3265 208 210 224
306.0000 30.0000 58.7755 191 193 206
309.0000 30.0000 53.8775 174 174 186
312.0000 30.0000 54.5306 178 179 191
315.0000 30.0000 53.5510 168 175 188
318.0000 30.0000 51.5918 163 169 181
321.0000 30.0000 48.9796 155 158 172
0.0000 33.0000 17.3061 86 54 47
3.0000 33.0000 17.3061 88 53 47
6.0000 33.0000 17.6327 89 55 47
9.0000 33.0000 17.9592 91 54 46
12.0000 33.0000 18.2857 93 56 48
15.0000 33.0000 18.9388 94 57 49
18.0000 33.0000 19.5918 98 60 53
21.0000 33.0000 18.9388 96 57 50
24.0000 33.0000 18.9388 94 57 51
27.0000 33.0000 18.9388 96 56 54
30.0000 33.0000 19.2653 100 57 52
33.0000 33.0000 20.5714 101 59 49
36.0000 33.0000 21.5510 108 65 61
39.0000 33.0000 21.5510 104 61 59
42.0000 33.0000 20.2449 104 61 54
45.0000 33.0000 19.9184 100 58 57
48.0000 33.0000 18.9388 95 56 54
51.0000 33.0000 16.0000 82 51 49
54.0000 33.0000 12.0816 56 33 35
57.0000 33.0000 12.7347 58 41 40
60.0000 33.0000 19.2653 78 47 48
63.0000 33.0000 23.8367 117 81 82
66.0000 33.0000 29.0612 122 94 96
69.0000 33.0000 36.2449 149 133 136
72.0000 33.0000 37.2245 149 134 136
75.0000 33.0000 34.2857 138 115 115
78.0000 33.0000 32.9796 120 98 98
81.0000 33.0000 38.2041 142 127 128
84.0000 33.0000 32.3265 121 108 110
87.0000 33.0000 17.3061 64 45 46
90.0000 33.0000 16.6531 82 52 53
93.0000 33.0000 20.5714 106 69 65
96.0000 33.0000 20.5714 105 65 62
99.0000 33.0000 14.6939 61 27 29
102.0000 33.0000 14.3673 51 27 25
105.0000 33.0000 16.6531 73 46 46
108.0000 33.0000 18.6122 100 62 62
111.0000 33.0000 23.5102 106 65 65
114.0000 33.0000 31.3469 117 84 83
117.0000 33.0000 28.4082 87 61 58
120.0000 33.0000 26.7755 87 56 57
123.0000 33.0000 32.0000 107 79 81
126.0000 33.0000 38.2041 139 111 111
129.0000 33.0000 43.1020 133 113 114
132.0000 33.0000 53.5510 196 188 190
135.0000 33.0000 49.6327 190 182 186
138.0000 33.0000 42.1225 162 149 155
141.0000 33.0000 36.5714 141 130 135
144.0000 33.0000 29.3878 109 96 101
147.0000 33.0000 16.6531 60 38 42
150.0000 33.0000 16.0000 77 49 53
153.0000 33.0000 12.7347 63 36 41
156.0000 33.0000 20.5714 112 82 85
159.0000 33.0000 22.8571 92 54 56
162.0000 33.0000 23.1837 100 63 66
165.0000 33.0000 17.3061 67 35 40
168.0000 33.0000 19.5918 93 60 63
171.0000 33.0000 28.4082 129 93 92
174.0000 33.0000 36.5714 145 114 116
177.0000 33.0000 48.0000 205 185 188
180.0000 33.0000 28.0816 135 116 117
183.0000 33.0000 17.3061 77 50 50
186.0000 33.0000 24.8163 128 97 100
189.0000 33.0000 26.4490 116 87 90
192.0000 33.0000 19.2653 87 62 64
195.0000 33.0000 16.6531 88 63 65
198.0000 33.0000 17.6327 94 64 68
201.0000 33.0000 16.0000 76 47 48
204.0000 33.0000 13.3878 67 43 48
207.0000 33.0000 13.3878 66 44 47
210.0000 33.0000 13.0612 67 43 47
213.0000 33.0000 12.7347 64 41 47
216.0000 33.0000 12.0816 61 41 46
219.0000 33.0000 12.0816 60 40 45
222.0000 33.0000 12.0816 59 40 46
225.0000 33.0000 15.0204 66 42 50
228.0000 33.0000 17.3061 78 55 61
231.0000 33.0000 15.3469 64 44 48
234.0000 33.0000 13.0612 60 40 47
237.0000 33.0000 14.0408 65 47 55
240.0000 33.0000 15.0204 66 52 59
243.0000 33.0000 15.3469 67 54 61
246.0000 33.0000 14.6939 62 50 59
249.0000 33.0000 14.6939 62 52 61
252.0000 33.0000 15.0204 64 51 63
255.0000 33.0000 15.6735 66 55 65
258.0000 33.0000 16.3265 67 56 66
261.0000 33.0000 17.3061 71 58 71
264.0000 33.0000 18.9388 77 64 77
267.0000 33.0000 21.2245 86 70 82
270.0000 33.0000 24.4898 93 79 90
273.0000 33.0000 29.3878 107 95 105
276.0000 33.0000 34.9388 123 112 122
279.0000 33.0000 38.5306 131 122 133
282.0000 33.0000 42.4490 138 133 145
285.0000 33.0000 46.0408 148 145 158
288.0000 33.0000 47.6735 150 151 163
291.0000 33.0000 49.6327 158 159 170
294.0000 33.0000 50.6122 160 163 171
297.0000 33.0000 51.5918 163 166 173
300.0000 33.0000 52.8980 170 171 183
303.0000 33.0000 52.8980 171 172 184
306.0000 33.0000 50.2857 164 163 176
309.0000 33.0000 48.6531 158 156 168
312.0000 33.0000 49.6327 163 161 170
315.0000 33.0000 48.9796 159 159 170
318.0000 33.0000 47.3469 153 155 166
321.0000 33.0000 46.3673 150 151 164
0.0000 36.0000 18.6122 91 58 51
3.0000 36.0000 18.6122 90 57 50
6.0000 36.0000 18.9388 93 59 51
9.0000 36.0000 19.2653 94 59 50
12.0000 36.0000 19.2653 94 59 51
15.0000 36.0000 20.2449 97 62 55
18.0000 36.0000 20.5714 99 63 56
21.0000 36.0000 19.2653 96 59 52
24.0000 36.0000 18.6122 99 63 58
27.0000 36.0000 18.6122 97 64 62
30.0000 36.0000 17.6327 91 59 58
33.0000 36.0000 18.9388 98 63 60
36.0000 36.0000 17.6327 84 49 50
39.0000 36.0000 22.2041 112 79 79
42.0000 36.0000 22.8571 99 69 62
45.0000 36.0000 27.1020 125 102 99
48.0000 36.0000 27.1020 119 96 96
51.0000 36.0000 22.5306 101 78 79
54.0000 36.0000 24.4898 108 89 91
57.0000 36.0000 26.4490 107 93 91
60.0000 36.0000 28.7347 104 84 83
63.0000 36.0000 32.6531 105 86 88
66.0000 36.0000 41.1429 146 134 139
69.0000 36.0000 41.7959 132 126 134
72.0000 36.0000 38.5306 130 119 122
75.0000 36.0000 28.0816 103 77 76
78.0000 36.0000 21.8776 78 47 48
81.0000 36.0000 24.4898 80 54 53
84.0000 36.0000 27.4286 103 81 80
87.0000 36.0000 20.5714 90 68 67
90.0000 36.0000 19.2653 68 47 42
93.0000 36.0000 22.2041 92 61 57
96.0000 36.0000 19.2653 85 49 47
99.0000 36.0000 28.7347 124 91 90
102.0000 36.0000 38.5306 152 129 129
105.0000 36.0000 39.1837 146 127 126
108.0000 36.0000 26.1224 106 69 72
111.0000 36.0000 23.8367 115 63 69
114.0000 36.0000 32.3265 137 99 101
117.0000 36.0000 37.8775 151 129 127
120.0000 36.0000 27.4286 109 80 81
123.0000 36.0000 24.1633 115 69 70
126.0000 36.0000 30.0408 139 93 93
129.0000 36.0000 39.8367 162 133 132
132.0000 36.0000 40.8163 149 134 134
135.0000 36.0000 23.8367 73 50 51
138.0000 36.0000 16.6531 72 43 48
141.0000 36.0000 15.3469 69 39 45
144.0000 36.0000 17.6327 77 50 53
147.0000 36.0000 13.7143 64 39 41
150.0000 36.0000 11.7551 57 34 37
153.0000 36.0000 10.1224 58 31 38
156.0000 36.0000 17.6327 60 28 27
159.0000 36.0000 36.5714 164 124 123
162.0000 36.0000 34.9388 150 107 110
165.0000 36.0000 26.7755 123 87 93
168.0000 36.0000 14.6939 60 33 37
171.0000 36.0000 23.1837 98 68 69
174.0000 36.0000 26.4490 92 63 63
177.0000 36.0000 27.1020 99 69 74
180.0000 36.0000 21.5510 88 57 62
183.0000 36.0000 15.3469 66 36 39
186.0000 36.0000 17.6327 73 47 51
189.0000 36.0000 17.3061 72 52 58
192.0000 36.0000 11.4286 51 33 38
195.0000 36.0000 12.7347 58 35 41
198.0000 36.0000 16.3265 87 56 64
201.0000 36.0000 17.9592 86 54 55
204.0000 36.0000 17.6327 85 56 57
207.0000 36.0000 16.9796 81 54 55
210.0000 36.0000 16.6531 78 53 55
213.0000 36.0000 16.6531 79 53 54
216.0000 36.0000 16.3265 77 51 52
219.0000 36.0000 16.3265 79 53 54
222.0000 36.0000 19.5918 99 77 81
225.0000 36.0000 18.9388 77 48 52
228.0000 36.0000 23.5102 103 69 70
231.0000 36.0000 26.1224 128 94 94
234.0000 36.0000 21.8776 102 68 74
237.0000 36.0000 22.8571 101 76 81
240.0000 36.0000 20.2449 84 69 73
243.0000 36.0000 19.2653 78 65 72
246.0000 36.0000 19.2653 80 64 74
249.0000 36.0000 18.9388 77 62 73
252.0000 36.0000 18.6122 74 61 73
255.0000 36.0000 18.9388 74 62 73
258.0000 36.0000 19.5918 77 64 77
261.0000 36.0000 20.5714 80 68 82
264.0000 36.0000 21.8776 85 73 87
267.0000 36.0000 24.1633 91 80 91
270.0000 36.0000 27.1020 100 90 101
273.0000 36.0000 30.3673 108 99 110
276.0000 36.0000 33.6327 117 109 119
279.0000 36.0000 35.9184 124 116 126
282.0000 36.0000 36.8980 127 119 130
285.0000 36.0000 37.5510 126 122 133
288.0000 36.0000 38.2041 128 125 135
291.0000 36.0000 39.5102 129 127 137
294.0000 36.0000 40.1633 132 130 139
297.0000 36.0000 41.1429 135 133 141
300.0000 36.0000 41.4694 136 133 144
303.0000 36.0000 41.4694 135 133 144
306.0000 36.0000 40.8163 133 131 142
309.0000 36.0000 41.1429 134 131 142
312.0000 36.0000 42.4490 142 136 146
315.0000 36.0000 43.1020 143 138 148
318.0000 36.0000 43.1020 144 139 149
321.0000 36.0000 42.7755 143 139 150
0.0000 39.0000 18.9388 91 59 52
3.0000 39.0000 19.5918 92 62 54
6.0000 39.0000 20.2449 95 62 54
9.0000 39.0000 20.5714 98 65 56
12.0000 39.0000 20.5714 97 64 57
15.0000 39.0000 21.5510 101 67 61
18.0000 39.0000 21.2245 101 66 60
21.0000 39.0000 20.2449 100 64 58
24.0000 39.0000 15.6735 82 51 46
27.0000 39.0000 11.1020 53 32 30
30.0000 39.0000 9.1429 46 27 28
33.0000 39.0000 12.4082 58 35 37
36.0000 39.0000 12.4082 62 36 41
39.0000 39.0000 16.9796 77 48 52
42.0000 39.0000 26.4490 119 89 85
45.0000 39.0000 21.5510 82 57 55
48.0000 39.0000 19.2653 72 46 49
51.0000 39.0000 19.5918 72 45 50
54.0000 39.0000 33.3061 122 100 101
57.0000 39.0000 47.3469 168 161 164
60.0000 39.0000 49.9592 174 167 168
63.0000 39.0000 50.2857 171 167 166
66.0000 39.0000 49.3061 164 162 164
69.0000 39.0000 49.9592 167 165 165
72.0000 39.0000 51.2653 173 172 175
75.0000 39.0000 47.3469 170 158 161
78.0000 39.0000 40.4898 154 139 140
81.0000 39.0000 38.2041 149 132 130
84.0000 39.0000 37.5510 142 125 121
87.0000 39.0000 36.5714 138 121 120
90.0000 39.0000 37.8775 140 126 122
93.0000 39.0000 31.0204 141 119 118
96.0000 39.0000 20.2449 64 39 39
99.0000 39.0000 46.3673 183 165 164
102.0000 39.0000 47.6735 185 173 178
105.0000 39.0000 39.1837 142 125 133
108.0000 39.0000 48.0000 192 174 178
111.0000 39.0000 42.7755 167 147 149
114.0000 39.0000 41.7959 162 143 145
117.0000 39.0000 44.4082 163 146 149
120.0000 39.0000 34.6122 129 112 116
123.0000 39.0000 24.4898 106 74 76
126.0000 39.0000 27.1020 116 76 75
129.0000 39.0000 30.6939 120 82 80
132.0000 39.0000 29.0612 117 85 83
135.0000 39.0000 27.4286 117 80 79
138.0000 39.0000 21.5510 100 61 62
141.0000 39.0000 20.5714 104 69 72
144.0000 39.0000 27.4286 128 100 101
147.0000 39.0000 23.8367 100 82 82
150.0000 39.0000 16.9796 74 60 60
153.0000 39.0000 13.7143 69 43 43
156.0000 39.0000 23.1837 119 77 75
159.0000 39.0000 33.9592 148 100 98
162.0000 39.0000 34.6122 150 105 107
165.0000 39.0000 31.0204 139 104 110
168.0000 39.0000 29.7143 135 110 115
171.0000 39.0000 30.6939 137 107 112
174.0000 39.0000 21.2245 94 61 64
177.0000 39.0000 19.9184 95 56 59
180.0000 39.0000 23.5102 110 66 69
183.0000 39.0000 23.8367 119 78 81
186.0000 39.0000 16.6531 85 52 57
189.0000 39.0000 10.4490 51 31 38
192.0000 39.0000 9.1429 53 38 43
195.0000 39.0000 9.1429 45 29 35
198.0000 39.0000 13.3878 68 47 54
201.0000 39.0000 17.6327 85 56 59
204.0000 39.0000 19.5918 92 62 64
207.0000 39.0000 22.8571 109 83 86
210.0000 39.0000 21.8776 102 82 86
213.0000 39.0000 22.2041 96 76 81
216.0000 39.0000 20.5714 90 69 75
219.0000 39.0000 16.3265 77 53 59
222.0000 39.0000 16.0000 71 45 50
225.0000 39.0000 18.6122 91 59 65
228.0000 39.0000 24.8163 115 77 84
231.0000 39.0000 24.4898 111 74 79
234.0000 39.0000 26.4490 122 83 85
237.0000 39.0000 27.4286 119 87 90
240.0000 39.0000 22.2041 95 72 75
243.0000 39.0000 19.2653 83 64 69
246.0000 39.0000 21.5510 82 58 66
249.0000 39.0000 25.4694 109 84 94
252.0000 39.0000 22.5306 90 73 82
255.0000 39.0000 22.2041 91 72 81
258.0000 39.0000 22.8571 92 74 84
261.0000 39.0000 23.5102 93 77 88
264.0000 39.0000 24.4898 95 80 92
267.0000 39.0000 26.4490 99 87 96
270.0000 39.0000 28.7347 105 94 103
273.0000 39.0000 30.6939 109 99 107
276.0000 39.0000 32.0000 112 103 111
279.0000 39.0000 33.3061 114 107 115
282.0000 39.0000 34.6122 120 112 122
285.0000 39.0000 35.5918 124 116 127
288.0000 39.0000 36.2449 124 118 125
291.0000 39.0000 36.5714 125 119 127
294.0000 39.0000 36.2449 124 117 127
297.0000 39.0000 36.5714 124 117 129
300.0000 39.0000 37.2245 126 119 130
303.0000 39.0000 37.5510 127 122 132
306.0000 39.0000 37.5510 127 123 133
309.0000 39.0000 36.8980 122 119 130
312.0000 39.0000 37.5510 125 121 134
315.0000 39.0000 38.2041 129 123 135
318.0000 39.0000 39.1837 133 126 136
321.0000 39.0000 39.8367 137 131 139
0.0000 42.0000 20.5714 94 66 57
3.0000 42.0000 20.8980 98 65 57
6.0000 42.0000 21.5510 99 67 58
9.0000 42.0000 21.5510 100 68 59
12.0000 42.0000 21.8776 102 68 63
15.0000 42.0000 22.2041 102 69 63
18.0000 42.0000 21.8776 99 68 60
21.0000 42.0000 21.8776 100 69 60
24.0000 42.0000 25.7959 105 85 78
27.0000 42.0000 25.7959 110 97 94
30.0000 42.0000 21.8776 91 80 80
33.0000 42.0000 24.1633 101 87 87
36.0000 42.0000 15.3469 70 50 52
39.0000 42.0000 12.4082 59 36 41
42.0000 42.0000 24.8163 112 81 80
45.0000 42.0000 23.5102 101 72 65
48.0000 42.0000 25.1429 115 83 80
51.0000 42.0000 28.4082 116 88 87
54.0000 42.0000 46.0408 165 148 144
57.0000 42.0000 56.1633 187 183 182
60.0000 42.0000 56.4898 187 183 182
63.0000 42.0000 56.8163 190 188 186
66.0000 42.0000 56.1633 187 184 181
69.0000 42.0000 56.4898 190 186 182
72.0000 42.0000 55.8367 185 182 179
75.0000 42.0000 53.8775 181 175 174
78.0000 42.0000 49.9592 171 162 161
81.0000 42.0000 45.0612 156 145 140
84.0000 42.0000 41.4694 147 133 126
87.0000 42.0000 40.8163 146 132 130
90.0000 42.0000 39.1837 142 127 122
93.0000 42.0000 30.3673 104 84 81
96.0000 42.0000 38.2041 149 130 126
99.0000 42.0000 44.7347 156 145 138
102.0000 42.0000 26.7755 80 66 64
105.0000 42.0000 13.7143 58 35 35
108.0000 42.0000 25.7959 95 73 74
111.0000 42.0000 40.8163 150 136 136
114.0000 42.0000 33.6327 124 108 109
117.0000 42.0000 21.5510 81 56 60
120.0000 42.0000 26.1224 120 85 90
123.0000 42.0000 22.2041 100 65 74
126.0000 42.0000 22.5306 102 64 69
129.0000 42.0000 23.5102 109 67 70
132.0000 42.0000 22.5306 106 67 72
135.0000 42.0000 20.8980 84 49 53
138.0000 42.0000 21.5510 93 58 62
141.0000 42.0000 23.1837 105 72 74
144.0000 42.0000 32.3265 135 107 109
147.0000 42.0000 32.9796 135 115 116
150.0000 42.0000 29.0612 118 100 101
153.0000 42.0000 25.1429 112 84 87
156.0000 42.0000 23.1837 112 67 64
159.0000 42.0000 26.4490 117 77 75
162.0000 42.0000 28.0816 133 102 106
165.0000 42.0000 22.2041 81 58 64
168.0000 42.0000 24.8163 109 79 83
171.0000 42.0000 24.8163 106 77 78
174.0000 42.0000 21.8776 99 64 63
177.0000 42.0000 24.8163 115 76 75
180.0000 42.0000 20.5714 90 55 54
183.0000 42.0000 18.9388 87 57 58
186.0000 42.0000 14.3673 79 46 51
189.0000 42.0000 11.7551 69 41 47
192.0000 42.0000 12.4082 70 49 56
195.0000 42.0000 9.1429 45 29 37
198.0000 42.0000 8.8163 45 29 35
201.0000 42.0000 12.7347 63 41 48
204.0000 42.0000 17.9592 84 52 56
207.0000 42.0000 24.1633 103 78 82
210.0000 42.0000 24.1633 98 86 91
213.0000 42.0000 23.8367 96 85 91
216.0000 42.0000 16.9796 69 54 64
219.0000 42.0000 12.7347 59 37 45
222.0000 42.0000 16.3265 84 51 59
225.0000 42.0000 19.5918 94 57 68
228.0000 42.0000 22.5306 104 65 76
231.0000 42.0000 27.1020 121 81 93
234.0000 42.0000 28.4082 122 88 91
237.0000 42.0000 20.8980 90 58 62
240.0000 42.0000 18.6122 83 57 61
243.0000 42.0000 18.2857 77 54 58
246.0000 42.0000 27.4286 113 86 92
249.0000 42.0000 30.3673 130 102 107
252.0000 42.0000 25.1429 98 78 85
255.0000 42.0000 24.1633 98 78 85
258.0000 42.0000 24.8163 99 80 86
261.0000 42.0000 25.7959 101 84 92
264.0000 42.0000 27.1020 102 88 96
267.0000 42.0000 28.4082 106 94 99
270.0000 42.0000 30.3673 110 99 105
273.0000 42.0000 31.6735 114 103 111
276.0000 42.0000 32.6531 117 106 114
279.0000 42.0000 32.6531 116 106 112
282.0000 42.0000 33.3061 118 108 115
285.0000 42.0000 34.2857 122 111 119
288.0000 42.0000 34.9388 122 113 121
291.0000 42.0000 35.2653 123 115 123
294.0000 42.0000 35.2653 123 115 125
297.0000 42.0000 34.9388 121 113 125
300.0000 42.0000 34.6122 119 113 121
303.0000 42.0000 34.9388 120 114 122
306.0000 42.0000 35.2653 120 114 125
309.0000 42.0000 35.2653 121 115 126
312.0000 42.0000 35.5918 120 116 128
315.0000 42.0000 35.2653 119 116 128
318.0000 42.0000 34.9388 117 114 126
321.0000 42.0000 35.2653 121 115 127
0.0000 45.0000 22.2041 98 71 62
3.0000 45.0000 21.8776 99 70 62
6.0000 45.0000 21.8776 99 69 61
9.0000 45.0000 21.8776 98 69 61
12.0000 45.0000 22.2041 103 69 61
15.0000 45.0000 21.8776 101 69 61
18.0000 45.0000 21.2245 96 66 60
21.0000 45.0000 23.8367 100 73 69
24.0000 45.0000 34.2857 127 113 110
27.0000 45.0000 37.8775 132 123 122
30.0000 45.0000 37.8775 134 126 123
33.0000 45.0000 33.3061 122 111 105
36.0000 45.0000 21.5510 92 70 66
39.0000 45.0000 16.0000 86 52 55
42.0000 45.0000 22.2041 98 68 64
45.0000 45.0000 22.8571 90 59 51
48.0000 45.0000 31.6735 131 100 95
51.0000 45.0000 49.3061 184 163 158
54.0000 45.0000 57.4694 193 187 180
57.0000 45.0000 61.3878 200 201 196
60.0000 45.0000 61.3878 200 200 196
63.0000 45.0000 59.7551 197 194 190
66.0000 45.0000 57.1429 189 185 182
69.0000 45.0000 53.2245 177 172 168
72.0000 45.0000 49.3061 163 157 154
75.0000 45.0000 48.0000 162 153 151
78.0000 45.0000 47.3469 162 152 152
81.0000 45.0000 44.0816 150 141 139
84.0000 45.0000 43.7551 150 142 136
87.0000 45.0000 44.0816 150 140 137
90.0000 45.0000 45.7143 159 148 143
93.0000 45.0000 46.3673 163 150 147
96.0000 45.0000 49.6327 170 158 153
99.0000 45.0000 50.6122 175 166 161
102.0000 45.0000 40.8163 151 134 128
105.0000 45.0000 25.1429 103 76 73
108.0000 45.0000 16.9796 77 44 46
111.0000 45.0000 20.5714 89 57 59
114.0000 45.0000 23.5102 100 75 75
117.0000 45.0000 10.4490 54 31 33
120.0000 45.0000 19.5918 86 56 59
123.0000 45.0000 20.5714 87 61 70
126.0000 45.0000 15.6735 70 46 51
129.0000 45.0000 24.8163 95 74 77
132.0000 45.0000 36.5714 150 129 134
135.0000 45.0000 34.2857 140 120 123
138.0000 45.0000 22.5306 88 64 66
141.0000 45.0000 16.0000 74 45 47
144.0000 45.0000 23.5102 105 72 73
147.0000 45.0000 22.8571 98 65 64
150.0000 45.0000 26.4490 115 83 82
153.0000 45.0000 21.5510 103 66 66
156.0000 45.0000 20.5714 101 62 60
159.0000 45.0000 24.1633 114 75 75
162.0000 45.0000 17.6327 75 42 42
165.0000 45.0000 17.9592 93 62 64
168.0000 45.0000 20.8980 91 57 56
171.0000 45.0000 28.0816 122 88 88
174.0000 45.0000 26.1224 113 76 78
177.0000 45.0000 24.1633 109 69 71
180.0000 45.0000 23.1837 110 73 75
183.0000 45.0000 22.5306 95 66 70
186.0000 45.0000 24.4898 110 78 83
189.0000 45.0000 16.3265 72 45 47
192.0000 45.0000 12.0816 58 37 42
195.0000 45.0000 10.1224 49 33 40
198.0000 45.0000 9.1429 47 29 34
201.0000 45.0000 15.0204 73 47 49
204.0000 45.0000 26.1224 111 87 84
207.0000 45.0000 30.0408 117 99 100
210.0000 45.0000 25.1429 98 83 89
213.0000 45.0000 16.0000 66 52 59
216.0000 45.0000 11.7551 54 36 44
219.0000 45.0000 14.6939 74 46 53
222.0000 45.0000 17.3061 86 51 61
225.0000 45.0000 20.8980 99 62 72
228.0000 45.0000 25.4694 113 76 86
231.0000 45.0000 29.7143 129 91 100
234.0000 45.0000 29.7143 129 93 96
237.0000 45.0000 24.4898 101 77 79
240.0000 45.0000 21.2245 88 66 71
243.0000 45.0000 20.2449 85 57 64
246.0000 45.0000 30.6939 132 101 106
249.0000 45.0000 27.7551 110 83 86
252.0000 45.0000 26.1224 104 83 88
255.0000 45.0000 26.1224 103 83 87
258.0000 45.0000 26.4490 104 85 90
261.0000 45.0000 27.7551 105 90 95
264.0000 45.0000 28.7347 108 94 99
267.0000 45.0000 30.3673 113 99 101
270.0000 45.0000 31.6735 118 103 106
273.0000 45.0000 33.3061 122 107 112
276.0000 45.0000 33.6327 122 108 114
279.0000 45.0000 33.6327 121 109 114
282.0000 45.0000 33.6327 122 110 115
285.0000 45.0000 33.6327 121 109 113
288.0000 45.0000 34.2857 122 110 115
291.0000 45.0000 34.9388 125 112 118
294.0000 45.0000 34.9388 124 112 119
297.0000 45.0000 34.9388 125 112 120
300.0000 45.0000 34.6122 122 113 119
303.0000 45.0000 34.2857 121 111 119
306.0000 45.0000 34.2857 121 112 119
309.0000 45.0000 34.6122 121 112 120
312.0000 45.0000 34.9388 121 114 123
315.0000 45.0000 34.6122 120 113 123
318.0000 45.0000 33.9592 117 112 122
321.0000 45.0000 33.3061 113 108 118
0.0000 48.0000 22.5306 101 73 65
3.0000 48.0000 22.5306 99 71 63
6.0000 48.0000 22.8571 100 71 64
9.0000 48.0000 22.8571 101 73 65
12.0000 48.0000 22.5306 99 71 62
15.0000 48.0000 22.2041 97 70 63
18.0000 48.0000 24.8163 100 78 74
21.0000 48.0000 32.6531 122 104 103
24.0000 48.0000 42.7755 147 139 139
27.0000 48.0000 47.3469 160 155 156
30.0000 48.0000 45.3878 153 149 144
33.0000 48.0000 40.4898 139 131 122
36.0000 48.0000 34.6122 132 113 103
39.0000 48.0000 32.0000 125 94 91
42.0000 48.0000 39.1837 154 130 124
45.0000 48.0000 39.5102 155 131 125
48.0000 48.0000 34.2857 121 99 94
51.0000 48.0000 52.2449 180 169 165
54.0000 48.0000 58.4490 189 189 184
57.0000 48.0000 61.0612 199 200 195
60.0000 48.0000 57.7959 191 189 185
63.0000 48.0000 53.5510 178 174 168
66.0000 48.0000 48.9796 165 158 153
69.0000 48.0000 44.7347 152 143 141
72.0000 48.0000 42.1225 153 139 139
75.0000 48.0000 37.5510 138 119 121
78.0000 48.0000 40.8163 148 132 133
81.0000 48.0000 46.0408 162 152 152
84.0000 48.0000 45.3878 162 152 151
87.0000 48.0000 46.0408 166 151 150
90.0000 48.0000 49.9592 174 161 159
93.0000 48.0000 54.2041 180 175 171
96.0000 48.0000 56.4898 184 183 179
99.0000 48.0000 56.8163 189 182 181
102.0000 48.0000 53.8775 180 177 166
105.0000 48.0000 47.6735 165 153 145
108.0000 48.0000 45.3878 173 152 150
111.0000 48.0000 28.7347 120 86 87
114.0000 48.0000 18.9388 91 59 60
117.0000 48.0000 13.0612 69 45 48
120.0000 48.0000 16.3265 67 42 45
123.0000 48.0000 21.8776 102 74 83
126.0000 48.0000 14.0408 68 47 56
129.0000 48.0000 14.0408 60 45 52
132.0000 48.0000 31.6735 124 108 115
135.0000 48.0000 44.7347 165 155 156
138.0000 48.0000 32.9796 121 104 105
141.0000 48.0000 21.5510 91 66 68
144.0000 48.0000 20.2449 93 63 65
147.0000 48.0000 18.6122 91 59 63
150.0000 48.0000 17.6327 88 55 59
153.0000 48.0000 14.6939 71 40 43
156.0000 48.0000 15.0204 78 49 48
159.0000 48.0000 17.6327 92 54 55
162.0000 48.0000 20.2449 100 59 59
165.0000 48.0000 24.8163 114 74 73
168.0000 48.0000 27.4286 125 85 83
171.0000 48.0000 29.7143 134 93 95
174.0000 48.0000 29.7143 122 87 91
177.0000 48.0000 39.5102 150 123 125
180.0000 48.0000 41.7959 147 127 127
183.0000 48.0000 48.3265 168 152 154
186.0000 48.0000 53.2245 184 173 171
189.0000 48.0000 41.4694 161 138 138
192.0000 48.0000 19.2653 74 49 54
195.0000 48.0000 14.3673 71 44 50
198.0000 48.0000 19.2653 89 56 61
201.0000 48.0000 28.4082 129 95 93
204.0000 48.0000 27.7551 114 92 89
207.0000 48.0000 25.1429 101 83 84
210.0000 48.0000 16.0000 72 54 60
213.0000 48.0000 12.7347 61 41 47
216.0000 48.0000 15.3469 76 48 54
219.0000 48.0000 16.3265 81 47 55
222.0000 48.0000 19.9184 95 58 69
225.0000 48.0000 24.1633 109 72 81
228.0000 48.0000 28.7347 127 88 96
231.0000 48.0000 29.7143 131 91 98
234.0000 48.0000 28.4082 120 84 88
237.0000 48.0000 32.3265 129 110 111
240.0000 48.0000 27.4286 111 92 95
243.0000 48.0000 22.8571 99 68 75
246.0000 48.0000 26.4490 112 82 87
249.0000 48.0000 25.1429 107 80 84
252.0000 48.0000 27.1020 114 89 92
255.0000 48.0000 28.0816 112 90 92
258.0000 48.0000 28.0816 107 91 92
261.0000 48.0000 29.0612 108 94 96
264.0000 48.0000 30.0408 112 97 100
267.0000 48.0000 31.3469 114 102 102
270.0000 48.0000 32.6531 119 105 106
273.0000 48.0000 33.6327 124 108 110
276.0000 48.0000 34.2857 126 109 111
279.0000 48.0000 34.6122 127 111 114
282.0000 48.0000 34.2857 125 110 113
285.0000 48.0000 34.2857 123 110 113
288.0000 48.0000 34.6122 126 110 113
291.0000 48.0000 34.9388 127 112 114
294.0000 48.0000 34.9388 128 112 114
297.0000 48.0000 34.9388 128 113 115
300.0000 48.0000 34.9388 126 113 117
303.0000 48.0000 34.6122 124 111 114
306.0000 48.0000 34.2857 123 110 113
309.0000 48.0000 33.9592 123 110 114
312.0000 48.0000 34.2857 122 111 114
315.0000 48.0000 34.2857 122 111 116
318.0000 48.0000 33.6327 119 109 115
321.0000 48.0000 32.9796 116 107 112
0.0000 51.0000 23.5102 104 75 67
3.0000 51.0000 23.8367 102 76 69
6.0000 51.0000 24.1633 103 77 70
9.0000 51.0000 24.1633 103 77 70
12.0000 51.0000 23.8367 97 75 68
15.0000 51.0000 28.4082 108 90 84
18.0000 51.0000 35.5918 129 117 113
21.0000 51.0000 42.4490 146 138 135
24.0000 51.0000 49.9592 164 162 159
27.0000 51.0000 53.5510 174 174 174
30.0000 51.0000 53.2245 177 174 172
33.0000 51.0000 51.5918 172 166 160
36.0000 51.0000 52.5714 178 171 167
39.0000 51.0000 53.8775 184 178 170
42.0000 51.0000 52.2449 176 169 160
45.0000 51.0000 49.6327 168 159 151
48.0000 51.0000 51.2653 175 167 162
51.0000 51.0000 56.1633 188 182 179
54.0000 51.0000 57.1429 190 184 185
57.0000 51.0000 55.8367 184 181 179
60.0000 51.0000 51.2653 172 166 163
63.0000 51.0000 46.3673 160 150 145
66.0000 51.0000 42.4490 152 138 132
69.0000 51.0000 37.8775 137 122 119
72.0000 51.0000 26.1224 97 74 73
75.0000 51.0000 18.6122 86 54 57
78.0000 51.0000 24.8163 114 84 86
81.0000 51.0000 25.4694 106 81 84
84.0000 51.0000 20.8980 83 61 64
87.0000 51.0000 22.8571 94 64 64
90.0000 51.0000 38.5306 135 108 107
93.0000 51.0000 56.1633 194 185 181
96.0000 51.0000 57.7959 188 189 184
99.0000 51.0000 56.8163 189 184 183
102.0000 51.0000 54.5306 180 179 173
105.0000 51.0000 53.5510 175 173 166
108.0000 51.0000 55.8367 208 196 195
111.0000 51.0000 23.1837 90 64 70
114.0000 51.0000 14.0408 74 48 54
117.0000 51.0000 11.1020 58 36 41
120.0000 51.0000 16.9796 85 59 62
123.0000 51.0000 19.2653 95 63 70
126.0000 51.0000 13.0612 62 42 50
129.0000 51.0000 8.4898 40 27 36
132.0000 51.0000 10.4490 47 32 38
135.0000 51.0000 22.2041 97 83 87
138.0000 51.0000 29.3878 120 100 103
141.0000 51.0000 29.0612 122 96 99
144.0000 51.0000 19.5918 91 61 63
147.0000 51.0000 14.3673 73 39 42
150.0000 51.0000 13.3878 71 36 39
153.0000 51.0000 19.5918 98 69 71
156.0000 51.0000 16.6531 80 59 58
159.0000 51.0000 16.6531 79 46 48
162.0000 51.0000 24.1633 109 68 71
165.0000 51.0000 27.4286 123 87 87
168.0000 51.0000 25.4694 113 73 73
171.0000 51.0000 27.7551 124 82 84
174.0000 51.0000 39.8367 155 127 127
177.0000 51.0000 61.0612 207 196 193
180.0000 51.0000 68.8980 229 224 222
183.0000 51.0000 70.8571 234 229 229
186.0000 51.0000 69.5510 227 225 222
189.0000 51.0000 65.9592 220 215 213
192.0000 51.0000 52.8980 184 173 174
195.0000 51.0000 36.5714 131 106 106
198.0000 51.0000 29.3878 130 92 91
201.0000 51.0000 18.9388 82 46 47
204.0000 51.0000 17.3061 86 52 57
207.0000 51.0000 18.2857 83 57 61
210.0000 51.0000 9.4694 47 28 31
213.0000 51.0000 12.7347 61 39 43
216.0000 51.0000 22.8571 110 79 83
219.0000 51.0000 21.2245 95 61 68
222.0000 51.0000 22.8571 107 69 81
225.0000 51.0000 26.1224 118 79 89
228.0000 51.0000 27.7551 125 85 92
231.0000 51.0000 23.8367 105 66 70
234.0000 51.0000 21.8776 95 68 74
237.0000 51.0000 20.8980 83 58 62
240.0000 51.0000 28.0816 111 88 90
243.0000 51.0000 29.0612 109 83 86
246.0000 51.0000 25.4694 110 85 92
249.0000 51.0000 17.6327 80 55 63
252.0000 51.0000 20.5714 100 66 72
255.0000 51.0000 31.0204 130 104 105
258.0000 51.0000 38.5306 136 120 120
261.0000 51.0000 35.5918 121 110 109
264.0000 51.0000 36.8980 129 113 114
267.0000 51.0000 44.0816 149 140 142
270.0000 51.0000 37.8775 128 117 120
273.0000 51.0000 33.9592 122 108 110
276.0000 51.0000 33.6327 125 108 110
279.0000 51.0000 34.6122 130 110 112
282.0000 51.0000 34.6122 128 111 112
285.0000 51.0000 34.9388 127 113 113
288.0000 51.0000 34.9388 126 112 115
291.0000 51.0000 34.9388 126 111 114
294.0000 51.0000 34.6122 126 111 112
297.0000 51.0000 34.2857 125 111 110
300.0000 51.0000 34.6122 129 111 112
303.0000 51.0000 35.2653 130 113 113
306.0000 51.0000 34.9388 130 112 111
309.0000 51.0000 34.9388 129 112 110
312.0000 51.0000 34.6122 127 111 110
315.0000 51.0000 34.9388 128 114 114
318.0000 51.0000 33.6327 123 109 109
321.0000 51.0000 32.6531 121 104 106
0.0000 54.0000 25.1429 102 81 74
3.0000 54.0000 24.8163 104 78 71
6.0000 54.0000 24.1633 104 76 68
9.0000 54.0000 25.4694 100 77 73
12.0000 54.0000 31.3469 117 103 101
15.0000 54.0000 37.2245 133 124 120
18.0000 54.0000 41.4694 143 137 133
21.0000 54.0000 45.3878 150 147 142
24.0000 54.0000 52.2449 171 168 165
27.0000 54.0000 58.4490 189 189 192
30.0000 54.0000 58.7755 189 189 191
33.0000 54.0000 58.7755 191 190 186
36.0000 54.0000 58.1224 192 191 191
39.0000 54.0000 54.5306 179 178 174
42.0000 54.0000 50.9388 170 166 159
45.0000 54.0000 50.9388 166 164 160
48.0000 54.0000 55.1837 184 180 182
51.0000 54.0000 56.1633 187 181 184
54.0000 54.0000 54.5306 182 177 175
57.0000 54.0000 50.9388 171 167 162
60.0000 54.0000 46.3673 159 151 146
63.0000 54.0000 43.1020 149 137 134
66.0000 54.0000 40.4898 142 126 126
69.0000 54.0000 33.9592 131 111 106
72.0000 54.0000 20.2449 88 54 49
75.0000 54.0000 14.3673 76 38 41
78.0000 54.0000 13.0612 71 40 45
81.0000 54.0000 10.4490 55 31 35
84.0000 54.0000 13.3878 67 44 47
87.0000 54.0000 19.5918 87 54 57
90.0000 54.0000 41.4694 159 134 131
93.0000 54.0000 52.5714 181 172 168
96.0000 54.0000 53.5510 177 175 173
99.0000 54.0000 51.2653 172 165 168
102.0000 54.0000 48.6531 165 160 157
105.0000 54.0000 45.3878 160 153 145
108.0000 54.0000 38.2041 162 140 138
111.0000 54.0000 12.7347 60 36 40
114.0000 54.0000 6.8571 43 24 30
117.0000 54.0000 6.2041 37 22 29
120.0000 54.0000 9.1429 50 30 37
123.0000 54.0000 15.0204 75 46 53
126.0000 54.0000 13.7143 63 40 44
129.0000 54.0000 10.4490 56 36 39
132.0000 54.0000 9.7959 48 27 32
135.0000 54.0000 9.1429 52 36 43
138.0000 54.0000 12.7347 68 45 54
141.0000 54.0000 18.9388 93 62 65
144.0000 54.0000 16.9796 87 47 48
147.0000 54.0000 20.5714 105 63 65
150.0000 54.0000 16.9796 91 52 53
153.0000 54.0000 16.9796 87 60 60
156.0000 54.0000 10.7755 49 29 29
159.0000 54.0000 20.2449 94 65 69
162.0000 54.0000 36.5714 146 117 119
165.0000 54.0000 37.8775 165 140 139
168.0000 54.0000 25.1429 114 73 75
171.0000 54.0000 24.1633 106 68 72
174.0000 54.0000 36.8980 135 109 110
177.0000 54.0000 59.1020 209 196 194
180.0000 54.0000 66.6122 219 214 209
183.0000 54.0000 67.2653 220 217 213
186.0000 54.0000 66.6122 215 215 211
189.0000 54.0000 67.2653 217 217 215
192.0000 54.0000 67.9184 221 223 220
195.0000 54.0000 62.6939 219 210 208
198.0000 54.0000 40.8163 128 104 106
201.0000 54.0000 26.7755 103 72 71
204.0000 54.0000 31.0204 121 87 87
207.0000 54.0000 32.9796 121 96 94
210.0000 54.0000 24.4898 93 77 74
213.0000 54.0000 14.3673 56 39 39
216.0000 54.0000 19.2653 82 58 62
219.0000 54.0000 21.8776 103 71 80
222.0000 54.0000 17.9592 88 56 65
225.0000 54.0000 18.9388 87 58 62
228.0000 54.0000 24.4898 108 73 76
231.0000 54.0000 27.7551 120 96 95
234.0000 54.0000 21.5510 79 55 60
237.0000 54.0000 26.4490 109 79 82
240.0000 54.0000 42.1225 162 139 139
243.0000 54.0000 46.3673 162 151 150
246.0000 54.0000 42.7755 157 146 145
249.0000 54.0000 28.7347 95 73 78
252.0000 54.0000 22.8571 94 58 63
255.0000 54.0000 27.7551 113 77 76
258.0000 54.0000 42.4490 168 144 137
261.0000 54.0000 46.3673 169 155 142
264.0000 54.0000 48.0000 171 158 142
267.0000 54.0000 54.2041 185 177 167
270.0000 54.0000 55.8367 195 190 195
273.0000 54.0000 46.0408 151 141 150
276.0000 54.0000 31.6735 111 92 95
279.0000 54.0000 34.2857 133 112 111
282.0000 54.0000 34.6122 125 112 107
285.0000 54.0000 34.9388 129 112 112
288.0000 54.0000 34.9388 129 112 113
291.0000 54.0000 35.2653 129 113 113
294.0000 54.0000 34.6122 127 111 111
297.0000 54.0000 34.6122 127 111 111
300.0000 54.0000 34.2857 127 109 109
303.0000 54.0000 34.6122 129 111 110
306.0000 54.0000 34.9388 131 113 110
309.0000 54.0000 35.5918 132 115 111
312.0000 54.0000 35.2653 130 114 111
315.0000 54.0000 34.6122 128 112 112
318.0000 54.0000 32.9796 120 105 106
321.0000 54.0000 32.0000 121 103 101
0.0000 57.0000 26.1224 110 86 80
3.0000 57.0000 24.4898 105 78 70
6.0000 57.0000 26.4490 100 78 73
9.0000 57.0000 33.6327 127 112 111
12.0000 57.0000 37.5510 131 122 118
15.0000 57.0000 40.1633 139 132 126
18.0000 57.0000 43.4286 148 142 136
21.0000 57.0000 48.0000 160 156 150
24.0000 57.0000 54.8571 177 178 174
27.0000 57.0000 60.7347 198 199 201
30.0000 57.0000 61.3878 203 204 205
33.0000 57.0000 57.7959 197 195 192
36.0000 57.0000 49.3061 176 169 165
39.0000 57.0000 43.4286 159 151 148
42.0000 57.0000 47.0204 164 155 153
45.0000 57.0000 51.5918 175 169 168
48.0000 57.0000 53.2245 177 174 173
51.0000 57.0000 51.5918 171 167 167
54.0000 57.0000 50.2857 167 163 159
57.0000 57.0000 48.3265 160 154 150
60.0000 57.0000 47.0204 155 150 147
63.0000 57.0000 48.9796 160 156 154
66.0000 57.0000 49.3061 165 158 159
69.0000 57.0000 44.0816 156 140 137
72.0000 57.0000 32.6531 130 100 94
75.0000 57.0000 21.5510 92 56 53
78.0000 57.0000 15.3469 75 46 45
81.0000 57.0000 11.4286 63 40 42
84.0000 57.0000 11.4286 63 36 40
87.0000 57.0000 21.5510 92 57 59
90.0000 57.0000 38.2041 156 129 126
93.0000 57.0000 37.8775 137 119 115
96.0000 57.0000 43.7551 169 156 155
99.0000 57.0000 43.4286 158 142 144
102.0000 57.0000 38.2041 138 127 124
105.0000 57.0000 25.1429 93 65 65
108.0000 57.0000 17.9592 90 56 60
111.0000 57.0000 9.7959 51 32 36
114.0000 57.0000 5.5510 34 21 29
117.0000 57.0000 6.8571 39 29 37
120.0000 57.0000 5.8776 35 19 25
123.0000 57.0000 12.4082 61 33 38
126.0000 57.0000 11.1020 59 35 39
129.0000 57.0000 10.4490 51 29 32
132.0000 57.0000 13.0612 66 40 43
135.0000 57.0000 11.4286 49 26 31
138.0000 57.0000 10.1224 45 19 24
141.0000 57.0000 11.4286 62 30 34
144.0000 57.0000 16.3265 93 57 60
147.0000 57.0000 16.9796 91 53 58
150.0000 57.0000 16.0000 88 54 58
153.0000 57.0000 14.0408 75 44 48
156.0000 57.0000 11.1020 47 24 23
159.0000 57.0000 18.6122 88 56 57
162.0000 57.0000 25.7959 120 82 84
165.0000 57.0000 22.8571 100 67 66
168.0000 57.0000 19.2653 93 53 57
171.0000 57.0000 28.4082 111 76 79
174.0000 57.0000 43.7551 172 146 146
177.0000 57.0000 46.3673 159 144 140
180.0000 57.0000 61.0612 209 201 196
183.0000 57.0000 54.5306 203 193 190
186.0000 57.0000 51.9184 196 183 183
189.0000 57.0000 58.7755 200 193 191
192.0000 57.0000 62.6939 207 206 202
195.0000 57.0000 63.3469 209 208 206
198.0000 57.0000 60.7347 207 199 201
201.0000 57.0000 56.1633 199 186 186
204.0000 57.0000 55.5102 197 183 185
207.0000 57.0000 52.8980 187 174 175
210.0000 57.0000 45.0612 167 155 156
213.0000 57.0000 33.9592 136 121 124
216.0000 57.0000 24.1633 101 79 82
219.0000 57.0000 18.2857 81 53 56
222.0000 57.0000 15.3469 63 42 44
225.0000 57.0000 15.3469 74 55 56
228.0000 57.0000 20.8980 97 68 71
231.0000 57.0000 22.8571 92 70 67
234.0000 57.0000 26.7755 120 88 92
237.0000 57.0000 30.3673 124 92 92
240.0000 57.0000 42.4490 159 136 132
243.0000 57.0000 48.6531 170 160 155
246.0000 57.0000 51.5918 177 169 166
249.0000 57.0000 48.0000 186 169 172
252.0000 57.0000 30.3673 118 90 95
255.0000 57.0000 26.1224 121 77 79
258.0000 57.0000 31.0204 131 95 89
261.0000 57.0000 42.1225 155 131 114
264.0000 57.0000 45.7143 163 146 122
267.0000 57.0000 49.6327 175 162 140
270.0000 57.0000 52.8980 173 166 158
273.0000 57.0000 61.7143 207 204 203
276.0000 57.0000 52.5714 181 173 175
279.0000 57.0000 39.5102 138 115 117
282.0000 57.0000 35.2653 135 109 109
285.0000 57.0000 35.5918 130 114 113
288.0000 57.0000 35.5918 129 115 114
291.0000 57.0000 34.9388 128 112 112
294.0000 57.0000 34.9388 128 112 112
297.0000 57.0000 34.9388 128 112 112
300.0000 57.0000 34.6122 129 112 112
303.0000 57.0000 34.2857 127 110 110
306.0000 57.0000 33.6327 125 108 106
309.0000 57.0000 33.6327 125 108 105
312.0000 57.0000 34.6122 129 111 107
315.0000 57.0000 34.6122 130 111 109
318.0000 57.0000 33.9592 126 107 106
321.0000 57.0000 33.3061 124 107 103
0.0000 60.0000 23.1837 103 77 72
3.0000 60.0000 25.1429 90 68 64
6.0000 60.0000 33.6327 123 112 110
9.0000 60.0000 38.2041 129 124 120
12.0000 60.0000 39.8367 134 128 121
15.0000 60.0000 41.4694 143 136 128
18.0000 60.0000 44.0816 150 144 136
21.0000 60.0000 48.3265 164 158 150
24.0000 60.0000 52.2449 174 171 166
27.0000 60.0000 52.5714 175 174 170
30.0000 60.0000 49.6327 167 163 160
33.0000 60.0000 42.7755 153 142 140
36.0000 60.0000 22.8571 66 49 45
39.0000 60.0000 18.2857 67 45 46
42.0000 60.0000 38.5306 149 133 133
45.0000 60.0000 50.9388 175 167 167
48.0000 60.0000 48.9796 163 159 156
51.0000 60.0000 46.6939 159 153 148
54.0000 60.0000 43.4286 167 152 151
57.0000 60.0000 42.7755 172 154 153
60.0000 60.0000 45.7143 159 146 145
63.0000 60.0000 54.8571 184 181 180
66.0000 60.0000 54.8571 180 181 181
69.0000 60.0000 50.9388 171 169 165
72.0000 60.0000 43.4286 159 147 141
75.0000 60.0000 37.5510 146 128 120
78.0000 60.0000 28.0816 115 92 86
81.0000 60.0000 15.0204 64 38 37
84.0000 60.0000 11.7551 53 27 28
87.0000 60.0000 23.5102 92 64 64
90.0000 60.0000 33.6327 130 108 102
93.0000 60.0000 30.3673 129 105 100
96.0000 60.0000 25.4694 100 71 69
99.0000 60.0000 27.1020 99 69 68
102.0000 60.0000 28.7347 119 98 94
105.0000 60.0000 14.6939 79 46 51
